-5.24312935134526 2.35855596036155 -1.5404909564502 16 16 16
-5.18210063663456 2.41755441456593 -1.53220874700692 16 16 16
-5.16109212054009 2.40775351829066 -1.52599708992446 16 16 16
-5.14784117552525 2.4896721846786 -1.53220874700692 16 16 16
-5.15479771765434 2.49303660654979 -1.53427929936774 16 16 16
-5.10957034000952 2.5586822277751 -1.53117347082651 18 18 18
-5.06811337984717 2.53792212856394 -1.51875015666159 18 18 18
-5.04293131201668 2.61289076361491 -1.52185598520282 16 16 16
-5.04979244305343 2.6164457170348 -1.52392653756364 16 16 16
-5.01570502424781 2.68939743741191 -1.52496181374405 16 16 16
-4.99867954894486 2.68026845765151 -1.519785432842 20 20 20
-4.9544905653 2.74518866016878 -1.51771488048118 18 18 18
-4.93759257565028 2.73582580662113 -1.51253849957913 16 16 16
-4.8692214636018 2.78637271763889 -1.50322101395544 16 16 16
-4.91616987991752 2.8132385702883 -1.51771488048118 16 16 16
-5.81601709911295 2.23605447749308 0.108763396917151 1 1 1
-5.83841511104792 2.24466572708548 0.109182254671646 18 18 18
-28.3939607807325 11.3740231089125 0.533904017729377 8 8 8
-28.4719253696963 11.4052540824072 0.535370019870109 8 8 8
-7.25058071882166 3.02109535695766 0.137106104971299 1 1 1
-7.23212201027069 3.013404177332 0.136757056842554 1 1 1
-7.47743088049416 3.23887264820187 0.142237112463861 8 8 8
-7.22420745435718 3.12918812661859 0.13742024828717 6 6 6
-7.81080492443828 3.51359260381943 0.149497313541771 8 8 8
-7.96581739667205 3.58332301972526 0.152464222636109 1 1 1
-6.90807581710292 3.22275663072404 0.13305714667785 11 11 11
-6.76672484288098 3.15681355171133 0.130334571273633 12 12 12
-6.86780637040667 3.32150622118122 0.133161861116473 9 9 9
-6.89120911819574 3.33282459100438 0.133615623683843 2 2 2
-6.90360740386186 3.45706906772224 0.134767482508703 11 11 11
-6.64791824075587 3.32902947262142 0.12977609426764 3 3 3
-6.46644719656883 3.35045613511667 0.127123328489173 18 18 18
-6.4646716756472 3.34953618560127 0.127088423676299 21 21 21
-6.56647306679069 3.52091196617161 0.130055332770637 13 13 13
-6.61229386650528 3.54548086341274 0.130962857905375 12 12 12
-7.47058622819442 4.13930924444308 0.149078455787276 3 3 3
-6.75518707873726 3.74292022993191 0.134802387321578 11 11 11
-6.43738999557224 3.68374451450724 0.129461950951769 21 21 21
-6.48078032986432 3.70857428341063 0.130334571273633 16 16 16
-6.15529204070933 2.36649378661641 -1.52246873579928 25 25 25
-6.15711098043767 2.36719310511128 -1.52291863790797 23 23 23
-6.09089766145378 2.43988541402815 -1.51482039995159 27 27 27
-6.08908866303933 2.43916076733554 -1.5143704978429 22 22 22
-6.06027604481567 2.52513178335456 -1.51572020416896 23 23 23
-6.05487953898769 2.52288322433109 -1.5143704978429 27 27 27
-6.0083352130301 2.60252925018349 -1.51167108519077 25 25 25
-5.98687687298357 2.59323450286141 -1.50627225988652 23 23 23
-5.93409123336211 2.66937649443732 -1.50222314090833 11 11 11
-5.93764564560132 2.67097540219081 -1.50312294512571 14 14 14
-5.91438285121773 2.75917882997354 -1.50672216199521 11 11 11
-5.91438285121773 2.75917882997354 -1.50672216199521 12 12 12
-5.86651049216785 2.83724526368769 -1.50447265145177 12 12 12
-5.85598445659578 2.83215451261648 -1.50177323879964 13 13 13
-5.81115160158671 2.91000795300902 -1.50042353247358 14 14 14
-5.77281716823291 2.89081149874629 -1.49052568608245 11 11 11
-5.77912840359767 2.99433609010755 -1.50267304301702 12 12 12
-5.76009534598103 2.98447450418205 -1.49772411982145 12 12 12
-5.71732914181219 3.06560498843052 -1.49772411982145 15 15 15
-5.70015482777851 3.05639620204293 -1.49322509873458 20 20 20
-5.60292615423404 3.10447444386948 -1.47882823125657 28 28 28
-5.57053929785118 3.08652950488758 -1.4702800911915 27 27 27
-5.49362601500312 3.14368318704342 -1.46128204901775 27 27 27
-5.5646642824385 3.18433426273795 -1.48017793758263 26 26 26
-7.78501174583538 2.99306382270891 0.437109906541067 5 5 5
-7.74213452597086 2.97657903632905 0.434702452553892 19 19 19
-6.95820507166077 2.78731050918851 0.392833687559536 13 13 13
-6.98230756724606 2.79696546165839 0.394194422421853 21 21 21
-6.95967284537551 2.8998829382766 0.395136469634226 15 15 15
-6.93017489424279 2.88759204370377 0.393461719034452 44 44 44
-6.69857974504222 2.90151083503998 0.382575840135919 12 12 12
-6.70957604558128 2.90627391712212 0.383203871610835 5 5 5
-6.90695461254869 3.10700688038408 0.396915892146486 21 21 21
-6.97434842074075 3.13732313950175 0.400788752908464 10 10 10
-6.71142104438289 3.13101321482552 0.388123451497672 10 10 10
-6.78563039250039 3.16563337173163 0.392414999909593 2 2 2
-7.744063905613 3.74529435636891 0.450821927076718 8 8 8
-6.57715016641104 3.18093493280647 0.382889855873377 5 5 5
-6.57017032770918 3.2900962179402 0.385087966035581 32 32 32
-6.66124906832162 3.3357050537964 0.390426233572361 7 7 7
-6.38586116010144 3.30870214377037 0.376923556861682 28 28 28
0 0 0 135 135 135
-6.45110116077622 3.45905009293851 0.383622559260778 22 22 22
-6.73273177079647 3.61005910108862 0.40037006525852 39 39 39
-6.54255662345304 3.62510575295199 0.391996312259649 55 55 55
-6.59147293465643 3.65220934736658 0.394927125809254 21 21 21
-6.39661055037788 3.66040880583607 0.386239357072926 20 20 20
-6.42608002987827 3.67727247784127 0.388018779585186 25 25 25
-7.21266966206471 2.77301837626958 -1.50204841160416 16 16 16
-7.19067981553402 2.76456405195168 -1.49746899571512 17 17 17
-7.11675258981702 2.85082130816776 -1.49021825389082 17 17 17
-7.11310764610905 2.8493612204299 -1.48945501790931 19 19 19
-7.07133324545998 2.9464084138672 -1.48907339991856 17 17 17
-7.06589654639889 2.94414310755208 -1.4879285459463 16 16 16
-6.99167389113196 3.02846548407518 -1.48105942211274 16 16 16
-6.98807086413318 3.02690482162526 -1.48029618613123 16 16 16
-6.95228927509285 3.12740010957784 -1.48182265809425 15 15 15
-6.92364219077621 3.11451357809361 -1.4757167702422 16 16 16
-6.87648386522716 3.20801834830203 -1.47495353426069 20 20 20
-6.88537970463883 3.21216843672157 -1.47686162421446 16 16 16
-6.83279004803921 3.30457112920082 -1.47533515225144 17 17 17
-6.83279004803921 3.30457112920082 -1.47533515225144 22 22 22
-6.71460470383465 3.36242356577574 -1.45968881463057 23 23 23
-6.73215922593617 3.37121421562091 -1.4635049945381 19 19 19
-6.73558992297263 3.48990688318435 -1.47457191626994 17 17 17
-6.72164460222114 3.48268140309494 -1.47151897234391 19 19 19
-6.6665486442346 3.57457201998738 -1.47037411837165 17 17 17
-6.63713485577055 3.55880048499133 -1.46388661252885 16 16 16
-6.51531120478101 3.61000958647549 -1.44785865691722 15 15 15
-6.58571915401559 3.64902128733092 -1.4635049945381 16 16 16
-6.50751791582212 3.7238746513658 -1.45739910668605 17 17 17
-6.47003025042592 3.70242263713955 -1.44900351088948 26 26 26
-7.30111009235316 2.80702061814195 0.684346892054612 5 5 5
-28.4587080344576 10.9413745592018 2.66748866253483 4 4 4
-7.34073554013983 2.94054416411757 0.69184228593091 12 12 12
-7.24825965779995 2.90350027190142 0.683126711656145 3 3 3
-7.3197249312162 3.04990563673061 0.693759712271359 7 7 7
-7.30869017001336 3.04530778903704 0.692713843358387 11 11 11
-7.25631737032637 3.14309663747357 0.69184228593091 1 1 1
-7.79930710552086 3.37829434503962 0.743612797123019 2 2 2
-7.50789873054824 3.37733405264589 0.720255058066647 42 42 42
-7.54787302195 3.39531598613045 0.724089910747544 39 39 39
0 0 0 24 24 24
-7.02006019119404 3.27499959876532 0.67772305560579 12 12 12
-6.94315798746679 3.35794884220789 0.67475976035237 18 18 18
-6.87858715627361 3.32672017821422 0.668484546874538 21 21 21
-6.84809914660031 3.42927260306889 0.670053350243996 16 16 16
-6.96211536548232 3.48636767242279 0.681209285315696 12 12 12
-7.00006738335033 3.62694041996058 0.689750548104967 7 7 7
-7.0478313002951 3.6516883075873 0.69445695821334 19 19 19
-6.53194670809681 3.50239909507062 0.648438726042577 25 25 25
-6.4687343205991 3.46850491027962 0.642163512564745 6 6 6
-6.40461209385647 3.54867332193012 0.640594709195288 15 15 15
-6.42029685816795 3.55736395047362 0.642163512564745 5 5 5
-6.33778266922864 3.62674502523047 0.638851594340334 6 6 6
-6.410412102273 3.66830663261374 0.646172676731138 9 9 9
-8.083228362759 3.10771764682449 -1.37161738947274 18 18 18
-8.06847794603864 3.1020466292208 -1.3691144380321 21 21 21
-8.02988130337672 3.21660145309518 -1.37005304482234 18 18 18
-8.0647220763304 3.23055793348084 -1.37599755449387 16 16 16
-8.01576679564585 3.33992500571962 -1.37537181663371 18 18 18
-8.01211994996994 3.33840547659964 -1.37474607877355 16 16 16
-7.93210007302309 3.43581403558446 -1.3691144380321 18 18 18
-7.9375379844077 3.43816948396352 -1.37005304482234 18 18 18
-7.88875992265734 3.54865968177401 -1.37005304482234 21 21 21
-7.87614943636855 3.54298701272344 -1.36786296231178 22 22 22
-7.79432849513046 3.63621137126683 -1.36223132157033 28 28 28
-7.79611864866631 3.63704651397957 -1.36254419050041 30 30 30
-7.74813425219882 3.74726291529122 -1.36316992836057 21 21 21
-7.78014398746152 3.76274391884303 -1.36880156910202 9 9 9
-7.70632950402881 3.85904235214044 -1.36504714194105 9 9 9
-7.72575870974605 3.86877177361043 -1.36848870017194 10 10 10
-7.68922230100394 3.9840118150728 -1.37161738947274 10 10 10
-7.7102694423388 3.99491695690238 -1.37537181663371 10 10 10
-7.69132398154009 4.12405173475303 -1.38225493309548 10 10 10
-7.73310573245837 4.14645491303145 -1.38976378741741 10 10 10
-7.70284666694033 4.26800032059866 -1.3947696902987 15 15 15
-7.73222046535621 4.28427578166869 -1.40008846211007 13 13 13
-7.69984742770477 4.40617559971659 -1.40509436499135 19 19 19
-7.7187069961093 4.41696783565444 -1.40853592322224 34 34 34
-8.40091521139568 3.22985709177954 1.10511120599788 7 7 7
0 0 0 10 10 10
-7.16827345705247 2.87145948327311 0.948143491692047 36 36 36
-6.91766029762852 2.77106912601729 0.914995030285847 17 17 17
-7.08402397594847 2.95169625334407 0.9422937632086 14 14 14
-6.95025942596289 2.89596065414745 0.924500839071449 3 3 3
-7.27710158988604 3.15209938739154 0.973736053807128 49 49 49
-7.05851530933878 3.05741805410319 0.944487411389893 15 15 15
-7.33738285806724 3.30062962663871 0.987872897642125 11 11 11
-7.14005378539777 3.21186361891515 0.961305380779803 21 21 21
-6.96736496549699 3.25041621367823 0.943999934016272 31 31 31
-6.94217955121428 3.23866671019476 0.940587592400928 38 38 38
-6.83731086025037 3.30675754871738 0.932544215736189 19 19 19
-6.79263423413791 3.28515040320825 0.926450748565931 14 14 14
-6.85319273559345 3.43182328243429 0.941075069774549 3 3 3
-6.84076788473896 3.42560138060133 0.939368898966877 14 14 14
-6.87925178863125 3.56434231342085 0.951312094620581 15 15 15
-6.98676763774898 3.62004943130932 0.966180154516009 17 17 17
-33.5932979687714 18.0125683298087 4.68027026413128 12 12 12
-33.6982660907445 18.0688517429838 4.6948945853399 12 12 12
-33.6022088542894 18.6183425899475 4.71683106715283 12 12 12
-33.7480638327806 18.699158049722 4.73730511684489 13 13 13
-33.6524403432162 19.2573376165451 4.76070403077868 13 13 13
-33.790275445994 19.3362126426215 4.7802031257235 13 13 13
-10.5687737904281 4.06332264038608 -1.39028546956592 21 21 21
-10.5558036963655 4.05833609436878 -1.38857929875825 20 20 20
-10.4778413565039 4.19720273056322 -1.38589817320334 20 20 20
-10.4612566621303 4.19055925103893 -1.38370452502204 22 22 22
-10.3768307749085 4.32370819521144 -1.3802921834067 22 22 22
-10.3713336016214 4.32141769113487 -1.37956096734627 24 24 24
-10.333666412872 4.47606003120706 -1.3827295702748 18 18 18
-10.3136293371551 4.46738090898897 -1.38004844471989 22 22 22
-10.2031803079366 4.58977265623878 -1.37371123886282 24 24 24
-10.1651627801746 4.57267094832874 -1.36859272643981 24 24 24
-10.0615730059449 4.69392664164791 -1.36323047532998 26 26 26
-10.1227375834887 4.72246115010777 -1.37151759068153 30 30 30
-10.0468796801693 4.85901488209333 -1.37029889724748 28 28 28
-10.0111383792793 4.84172916568603 -1.36542412351127 22 22 22
-9.93810570489192 4.97663262324516 -1.36469290745084 20 20 20
-9.93810570489192 4.97663262324516 -1.36469290745084 22 22 22
-9.87559512469918 5.11683576277147 -1.36566786219808 20 20 20
-9.85796957566349 5.10770344836352 -1.36323047532998 18 18 18
-9.24419260842559 4.95669258695496 -1.2879152211056 5 5 5
-9.25993782672154 4.96513509893122 -1.29010886928689 18 18 18
-9.16976358823391 5.08079098891654 -1.28718400504517 28 28 28
-9.16455448185922 5.07790472249602 -1.28645278898474 30 30 30
-9.1040085384781 5.20969547234407 -1.2879152211056 26 26 26
-9.07816445670725 5.19490640495475 -1.28425914080344 24 24 24
-9.1471021687152 3.51673979149095 1.55214276212917 8 8 8
-9.19504102305638 3.53517059870295 1.56027735431126 3 3 3
-6.95165106670499 2.78468511273894 1.18608611393503 4 4 4
-6.50788964276867 2.60692362572158 1.11037183285556 1 1 1
-6.61173121042126 2.75490629452669 1.13446274047175 2 2 2
-6.4476231550054 2.68652748412752 1.10630453676451 9 9 9
-6.56537167835686 2.84381134298147 1.13321126475143 27 27 27
-6.5019293788697 2.81633111189248 1.12226085219862 21 21 21
-6.50881242305571 2.92790761138376 1.13039544438071 18 18 18
0 0 0 10 10 10
-8.34211547710333 3.89176504136505 1.45796921417495 7 7 7
-7.26802335558788 3.39067941372148 1.27024785612667 17 17 17
-7.24842671837558 3.50558724873239 1.27525375900796 10 10 10
-7.20396875273294 3.48408585491043 1.26743203575595 12 12 12
-7.07752975536178 3.54416289365729 1.25366580283241 10 10 10
-8.07195182979869 4.04213237434835 1.42981101046771 7 7 7
-7.32615911297752 3.79589811851257 1.30685352094609 1 1 1
-7.27354125964036 3.76863526393862 1.29746745304367 40 40 40
-7.62168773000963 4.08671310428899 1.36974017589226 7 7 7
-7.61646501114484 4.08391270700419 1.36880156910202 11 11 11
-7.65619416357394 4.24215105889921 1.38632222918653 11 11 11
-33.7729566962799 18.7129507102785 6.1153361073527 7 7 7
-33.6523280585592 19.2572733625556 6.1409913596193 7 7 7
-33.7912030622653 19.3367434635525 6.16633374295582 7 7 7
-12.3817603145408 4.76035233713426 -1.16056587042782 3 3 3
-12.3073730492087 4.73175304403042 -1.153593411008 3 3 3
-12.1291367276989 4.85867690306954 -1.14313472187828 3 3 3
0 0 0 13 13 13
0 0 0 13 13 13
0 0 0 13 13 13
0 0 0 13 13 13
0 0 0 13 13 13
0 0 0 13 13 13
0 0 0 13 13 13
0 0 0 13 13 13
-10.4687008715389 4.88385999836454 -1.01065799290184 2 2 2
-10.4389510428976 5.04863401230946 -1.01449284558274 2 2 2
-10.1340332289298 4.90116532122826 -0.984859893048537 2 2 2
-9.81608384437246 4.91552862718771 -0.960456285079193 2 2 2
-9.79114279649202 4.90303908076655 -0.958015924282259 2 2 2
0 0 0 13 13 13
-9.64300412096099 4.99632353530581 -0.950171907434969 20 20 20
0 0 0 13 13 13
0 0 0 13 13 13
0 0 0 13 13 13
0 0 0 13 13 13
0 0 0 13 13 13
0 0 0 13 13 13
-6.40454280206203 2.46232195758693 1.33375487768205 9 9 9
-6.53281690682436 2.51163884944132 1.36046813703476 1 1 1
-6.69576159154615 2.68218117444516 1.40206449802685 3 3 3
-6.50440204687758 2.60552656820762 1.36199460899778 15 15 15
-6.57478139788027 2.73951043708616 1.38451007045221 28 28 28
-6.58565479600245 2.7440410497164 1.38679977839673 21 21 21
-6.65479086674606 2.8825435450074 1.40969685784191 7 7 7
-6.74486654171555 2.92156010625547 1.42877775737957 18 18 18
-6.47603149832883 2.9131615236526 1.38031227255393 18 18 18
-6.47424105555904 2.91235611543484 1.37993065456317 14 14 14
0 0 0 16 16 16
-7.5579051641617 3.52591512123856 1.62111322471912 7 7 7
-7.48319530869064 3.61912937429805 1.61577057284858 4 4 4
-8.15127462533803 3.94223539779467 1.76002217335325 16 16 16
-8.24360357887778 4.12808916728964 1.79207808457651 9 9 9
-7.45540553651915 3.73338898924172 1.62073160672837 5 5 5
-7.26899844171736 3.76628149660423 1.59134702144038 19 19 19
-7.53047320580791 3.90175924828064 1.64858972005335 7 7 7
-7.36901912167017 3.95123338518719 1.62531102261741 12 12 12
-7.30327065333876 3.91597936578425 1.61080953896879 25 25 25
-7.27090870876193 4.02867174199716 1.61577057284858 30 30 30
-7.22969429945388 4.00583562442325 1.60661174107051 15 15 15
-7.17377596900004 4.10513544965961 1.60661174107051 17 17 17
-7.16525604504636 4.10025999188091 1.60470365111674 10 10 10
0 0 0 12 12 12
0 0 0 12 12 12
0 0 0 12 12 12
0 0 0 12 12 12
-11.5318552709467 4.80497159706494 -0.654722812599227 2 2 2
0 0 0 12 12 12
0 0 0 12 12 12
0 0 0 12 12 12
0 0 0 12 12 12
0 0 0 12 12 12
0 0 0 12 12 12
0 0 0 12 12 12
0 0 0 12 12 12
0 0 0 12 12 12
0 0 0 12 12 12
0 0 0 12 12 12
0 0 0 12 12 12
0 0 0 12 12 12
-9.88875479433583 5.30230379867082 -0.588046804345717 5 5 5
-9.68633279338377 5.19376607406292 -0.57600953440984 1 1 1
0 0 0 12 12 12
0 0 0 12 12 12
0 0 0 12 12 12
0 0 0 12 12 12
-6.81011034291245 2.6182484447671 1.68443349492686 7 7 7
-6.72825805513706 2.58677911249826 1.66418790003591 4 4 4
-7.96321102040973 3.18989474088267 1.98046908244339 8 8 8
-7.88361509017392 3.15801028640769 1.96067338966113 10 10 10
-7.80514626252751 3.25216586760921 1.95212524959606 14 14 14
-6.56394992209331 2.73499729221157 1.64169279460153 12 12 12
-28.4895228017844 12.3403261946201 7.16784039561291 3 3 3
-28.568203381955 12.374406934801 7.18763608839518 6 6 6
-28.4992773339906 12.8200423674145 7.21463021491644 7 7 7
-28.5952464644493 12.8632128767585 7.23892492878558 3 3 3
-7.99298201988995 3.72888724528523 2.03625694392067 3 3 3
-7.69629156930632 3.59047516901304 1.96067338966113 12 12 12
-7.66119955720604 3.70521832132898 1.96472250863932 11 11 11
-7.52786977329314 3.64073547442699 1.93052994837905 11 11 11
-7.51354893734389 3.76250503549472 1.93997789266149 28 28 28
-7.6355221343787 3.82358466269431 1.97147104026963 5 5 5
-7.24813439600918 3.75547122199417 1.8846399332929 16 16 16
-7.27235828752126 3.76802233135391 1.89093856281453 5 5 5
0 0 0 6 6 6
-7.37293301465898 3.95333199619472 1.93142975259643 7 7 7
-7.26317868670254 4.02438868431027 1.91703288511842 7 7 7
-7.29556554308539 4.04233362329218 1.92558102518348 3 3 3
-7.32032432048445 4.18899656204554 1.9471763264005 0 0 0
-35.5563442387301 20.3468312678654 9.45784212883346 12 12 12
0 0 0 10 10 10
0 0 0 10 10 10
0 0 0 10 10 10
0 0 0 10 10 10
0 0 0 10 10 10
0 0 0 10 10 10
0 0 0 10 10 10
-12.6006178788597 5.45799717182878 -0.239691350009652 1 1 1
-12.523184080345 5.63339724735653 -0.239691350009652 1 1 1
-12.523184080345 5.63339724735653 -0.239691350009652 1 1 1
0 0 0 10 10 10
0 0 0 10 10 10
-6.86600615903828 3.32063557734867 -0.133126956303599 9 9 9
0 0 0 10 10 10
-6.88215097059423 3.44632448631518 -0.134348624754208 1 1 1
-7.1217478087495 3.56630564536071 -0.1390258696794 1 1 1
-7.12516545849278 3.69175740533312 -0.140073014065637 8 8 8
-6.91032742697581 3.58044351396873 -0.135849531707815 15 15 15
-6.97886026422199 3.74203204134181 -0.138223058983285 9 9 9
-6.92246543380403 3.71179339858349 -0.137106104971299 5 5 5
0 0 0 10 10 10
0 0 0 10 10 10
0 0 0 10 10 10
0 0 0 10 10 10
0 0 0 6 6 6
-7.24335858619777 2.78481719065539 2.07935220835365 2 2 2
-34.8782999150762 13.9715128966035 10.0675432163979 8 8 8
-35.1329514955143 14.0735209603249 10.141047825207 8 8 8
-35.0710976644972 14.6130543781933 10.1803883200626 8 8 8
-35.2494222572897 14.6873567851603 10.2321521290831 8 8 8
-35.1472806328862 15.2241548895477 10.2632104144954 8 8 8
-35.2642786921876 15.2748329660449 10.2973745284489 8 8 8
-7.13706888518133 3.21052089900022 2.09695190342062 0 0 0
-7.10711821348345 3.19704796508686 2.08815205588714 3 3 3
0 0 0 6 6 6
0 0 0 6 6 6
-35.243581561493 17.0450023049026 10.4899358980052 9 9 9
-35.3096687117193 17.0769643126789 10.509606145433 9 9 9
-35.350695405103 17.7023095981803 10.5934635160462 9 9 9
0 0 0 6 6 6
-35.384568039317 18.333783524698 10.6783561628398 9 9 9
-35.4463182186478 18.3657781054769 10.6969911340872 9 9 9
0 0 0 6 6 6
-35.4827930788692 19.025706718636 10.7880954379633 9 9 9
0 0 0 6 6 6
-35.5956151971503 19.7228509981089 10.9040463701692 9 9 9
0 0 0 6 6 6
-35.6053435880111 20.3748707503656 10.9920448455041 10 10 10
-5.66784906511153 1.1531369250834 -1.54980844207389 28 28 28
-5.6886728258718 1.15737356709273 -1.55550246106615 34 34 34
-5.62309756302929 1.22500550914128 -1.54204387072082 38 38 38
-5.66273672006977 1.23364099611408 -1.55291427061512 29 29 29
-5.60002790904374 1.30110684842804 -1.5404909564502 38 38 38
-5.58497407057857 1.29760924937313 -1.53634985172856 28 28 28
-5.59256840504358 1.38194920321713 -1.54359678499143 24 24 24
-5.55130867837994 1.37175373625845 -1.53220874700692 30 30 30
-5.59141612803135 1.46479464902052 -1.54877316589348 38 38 38
-5.58207218396713 1.4623467970001 -1.54618497544246 36 36 36
-5.55579365363389 1.53762566115469 -1.54463206117184 30 30 30
-5.635853682825 1.55978313549439 -1.56689049905066 36 36 36
-5.6042539235566 1.63561372200477 -1.56430230859964 38 38 38
-5.58014561746585 1.62857766032838 -1.55757301342697 22 22 22
-5.55716091836737 1.70536003096542 -1.55757301342697 24 24 24
-5.54607983976644 1.70195951245901 -1.55446718488574 26 26 26
-5.49082605084713 1.76819845084788 -1.54566733735225 24 24 24
-5.50185919093591 1.77175142831108 -1.54877316589348 24 24 24
-5.45612937060148 1.84255340157577 -1.54307914690123 22 22 22
-5.43782635359175 1.83637241062785 -1.53790276599918 22 22 22
-5.4302062341175 1.91760553851673 -1.54307914690123 24 24 24
-5.42109820621727 1.91438915888151 -1.5404909564502 24 24 24
-5.40143820492189 1.99162479145667 -1.54256150881102 32 32 32
-5.2093065103844 1.92078176196191 -1.48769187124929 18 18 18
-5.5337717830673 1.12585859375103 0.0985711915577773 18 18 18
-5.52005492666451 1.12306786777501 0.0983268578676553 28 28 28
-5.49427639946591 1.19694150468639 0.0981523338032825 18 18 18
-5.54898469931834 1.20885984114842 0.0991296685637703 20 20 20
-5.55126802397432 1.2897780083896 0.099478716692516 18 18 18
-5.45387735688705 1.26715032403188 0.0977334760487877 5 5 5
-5.80838408282688 1.43527824317763 0.104435200120705 18 18 18
-5.8782710570855 1.45254763380409 0.105691773384189 16 16 16
-5.71040157604343 1.4959655087041 0.103039007605722 15 15 15
-5.60981184638413 1.46961381275132 0.101223957336244 18 18 18
-5.64297898128945 1.56175513849618 0.102201292096732 30 30 30
-5.6159975244117 1.55428773004709 0.101712624716488 26 26 26
-5.62638225490424 1.64207192373706 0.102306006535356 11 11 11
-5.73196090520097 1.67288528293376 0.104225771243457 13 13 13
-5.70261576202925 1.74999665033547 0.104121056804833 13 13 13
-5.60129540152387 1.71890385031275 0.102271101722481 16 16 16
-5.59609765061929 1.80209882902626 0.102620149851227 35 35 35
-5.61513199636969 1.80822841688009 0.102969197979973 33 33 33
-5.59848140729442 1.89062616737988 0.103143722044346 20 20 20
-5.89024659738692 1.98915626205889 0.108519063227029 9 9 9
-5.96596765539689 2.10680260110968 0.11043882793513 28 28 28
-6.03950518338692 2.13277140687557 0.111800115637238 8 8 8
-5.86505640623576 2.16257065225832 0.109112445045897 15 15 15
-5.84254179431163 2.15426903747038 0.108693587291402 26 26 26
-6.67029775531139 1.35708741615884 -1.57150806564624 25 25 25
-6.63974385777775 1.35087115544927 -1.56430963190724 28 28 28
-6.62429552397848 1.44311892512886 -1.56520943612461 28 28 28
-6.63952816674705 1.44643739348214 -1.56880865299411 28 28 28
-6.60566679675965 1.53475633466358 -1.5656593382333 28 28 28
-6.56770319447942 1.52593589595861 -1.55666129605955 28 28 28
-6.51359637213167 1.60953942171319 -1.54901296021185 27 27 27
-6.53251474672398 1.61421423850586 -1.55351198129873 30 30 30
-6.51311028504725 1.70625274090926 -1.55441178551611 29 29 29
-6.47917801728145 1.69736343574678 -1.54631354755973 27 27 27
-6.41008415992458 1.77405974896395 -1.53551589695122 29 29 29
-6.41008415992458 1.77405974896395 -1.53551589695122 29 29 29
-6.40339656060468 1.86884524235056 -1.5400149180381 33 33 33
-6.3846895884732 1.86338557176233 -1.53551589695122 32 32 32
-6.34535001883147 1.94723645105098 -1.53236658219041 43 43 43
-6.37888387095682 1.95752718978231 -1.54046482014679 37 37 37
-6.30491449801531 2.03035753543842 -1.52921726742959 29 29 29
-6.29563983708854 2.02737083709267 -1.52696775688616 23 23 23
-6.28850602959983 2.12364982364624 -1.53236658219041 28 28 28
-6.28481342476741 2.12240281846501 -1.53146677797303 25 25 25
-6.26046563927854 2.21080067054308 -1.5328164842991 23 23 23
-6.24025280627822 2.20366277580402 -1.52786756110353 22 22 22
-6.20013423665235 2.28612095290178 -1.52561805056009 24 24 24
-6.20561946304869 2.28814347217595 -1.52696775688616 25 25 25
-5.55834435062167 1.13085793912271 0.297268231459921 24 24 24
-5.58965896668151 1.13722896976565 0.298942982059695 17 17 17
-5.46611610898804 1.19080671677141 0.293186026872971 19 19 19
-5.39391107648802 1.17507667445776 0.289313166110994 14 14 14
-5.40054208188366 1.25475844086687 0.290569229060824 22 22 22
-5.35774239679669 1.24481438982253 0.288266446986135 15 15 15
-5.33596194323 1.31854057416507 0.288057103161163 26 26 26
-5.2874884517399 1.30656255296081 0.285440305349016 29 29 29
-5.25134203678528 1.37570474805063 0.284498258136643 22 22 22
-5.29964356398161 1.38835839731526 0.28711505594879 17 17 17
-5.54563363391718 1.53481376639974 0.301559779871842 17 17 17
-5.5206099486548 1.5278881923063 0.300199045009526 15 15 15
-5.7288119399234 1.67196625055436 0.312759674507832 7 7 7
-5.78057831287452 1.68707437932443 0.315585816144951 3 3 3
-5.69375862734661 1.74727860712986 0.312131643032917 19 19 19
-5.70521488213 1.75079425825085 0.312759674507832 15 15 15
-5.65201648024078 1.82010624484937 0.311189595820544 17 17 17
-5.61019193851011 1.80663758107988 0.308886813745855 15 15 15
-6.18772585470736 2.08961601662912 0.342277153828853 8 8 8
-6.14041908211785 2.07364035900963 0.339660356016706 10 10 10
-6.20540876928308 2.19135806481416 0.344893951641 10 10 10
-5.93609967853726 2.0962551199679 0.329925868155518 8 8 8
-7.76369935680991 2.86264056457208 0.433655733429033 8 8 8
-5.96097698624483 2.19793860388699 0.332961353617609 4 4 4
-7.53376314003349 1.53276143415332 -1.4944160517891 12 12 12
-7.54530618876695 1.5351098939605 -1.49670575973362 12 12 12
-7.53876949042062 1.64233930754286 -1.49975870365964 12 12 12
-7.55219732411857 1.64526459384128 -1.50243002959491 13 13 13
-7.54791827686933 1.75367843177175 -1.50624620950244 13 13 13
-7.56130450132793 1.75678857847112 -1.50891753543772 12 12 12
-7.5474744240395 1.86501541173759 -1.51120724338223 12 12 12
-7.55509813557893 1.86689926568884 -1.51273371534525 19 19 19
-7.5055057135748 1.96623258861402 -1.50815429945621 27 27 27
-7.5036065471493 1.965735060125 -1.50777268146546 23 23 23
-7.46822189710451 2.06691075084733 -1.50624620950244 16 16 16
-7.48525103241587 2.07162374723893 -1.50968077141922 19 19 19
-7.4405199743141 2.17153197104165 -1.5066278274932 26 26 26
-7.32932679334031 2.13907999883003 -1.48411236603877 16 16 16
-7.42488730574157 2.27852067478985 -1.50968077141922 16 16 16
-7.41550296890418 2.27564084582778 -1.50777268146546 17 17 17
-7.34230987087758 2.36442765061331 -1.49937708566889 13 13 13
-7.31240990703588 2.35479903203102 -1.49327119781684 16 16 16
-7.25606946944925 2.45039928031068 -1.4886917819278 19 19 19
-7.28769038228715 2.46107776986856 -1.49517928777061 16 16 16
-7.28638703356656 2.57309124717147 -1.50204841160416 17 17 17
-7.27713095247718 2.56982258450993 -1.5001403216504 20 20 20
-7.25021751260056 2.67330892138891 -1.50204841160416 16 16 16
-7.23916535175818 2.66923375535021 -1.49975870365964 16 16 16
-5.55845885828099 1.1308812359693 0.496264799205166 19 19 19
-5.65998322098932 1.15153660100983 0.505328996450922 37 37 37
-5.72143738656547 1.24642907937983 0.512301455870735 39 39 39
-5.61826073413676 1.22395179417836 0.503062947139483 17 17 17
-5.50381641253256 1.27875313179637 0.494347372864717 31 31 31
-5.54068965366024 1.2873202366991 0.497659291089128 21 21 21
-5.51637313560993 1.36312100403269 0.497136356632642 19 19 19
-5.59374162278539 1.38223911068111 0.504108816052455 22 22 22
-5.40043576145017 1.4147631341716 0.488420782357876 21 21 21
-5.64328190918133 1.47838203313863 0.510384029530286 15 15 15
-5.72797336468138 1.58527824844322 0.519971161232529 25 25 25
-5.70301069162041 1.57836956013287 0.51770511192109 34 34 34
-5.73014486345807 1.67235526719305 0.522237210543968 23 23 23
-5.91184171326732 1.72538388881633 0.538796801666023 20 20 20
-6.1274855235075 1.88037903807523 0.560760048838433 28 28 28
-6.00177397717505 1.84180116536371 0.549255490795742 10 10 10
-6.14838905139314 1.97995199542083 0.565117835975816 6 6 6
-5.97580934637255 1.92437653842413 0.549255490795742 23 23 23
-6.06881793047673 2.04946040715146 0.560411425867442 15 15 15
-9.1777893555141 3.09937060639825 0.847502442478228 7 7 7
-7.89424942133823 2.78774981283024 0.732456862051319 6 6 6
-7.94497401305077 2.80566253176085 0.737163272159693 0 0 0
-9.0832338389301 3.3491809058793 0.846979508021742 16 16 16
-28.410575814789 10.4755816850285 2.64918595655782 8 8 8
-8.74364909572027 1.77891551387824 -1.41322895717345 21 21 21
-8.61008438737298 1.75174146684312 -1.39164100099789 21 21 21
-8.62371566739489 1.87869747650894 -1.3978983795995 22 22 22
-8.64494683846502 1.88332273887277 -1.40133993783039 19 19 19
-8.61623435146387 2.00189029491192 -1.40102706890031 16 16 16
-8.61623435146387 2.00189029491192 -1.40102706890031 19 19 19
-8.58744372216765 2.12199657653164 -1.40102706890031 18 18 18
-8.18280981743845 2.02200969005371 -1.33501172465333 13 13 13
-8.09454284231457 2.12054384259616 -1.32531278782084 15 15 15
-8.09263194929231 2.12004324206674 -1.32499991889076 12 12 12
-8.50621982526988 2.35418784392809 -1.3978983795995 16 16 16
-8.5481036292439 2.36577963725092 -1.40478149606127 22 22 22
-8.48769121405434 2.47715117965897 -1.40040133104015 18 18 18
-8.33030105079104 2.43121651748031 -1.37443320984347 1 1 1
-8.3073191600385 2.54931794635974 -1.37631042342395 18 18 18
-8.29598842237989 2.54584081344813 -1.37443320984347 19 19 19
-8.26950008679797 2.66300864521226 -1.37599755449387 21 21 21
-8.21685206441727 2.64605452014042 -1.36723722445162 15 15 15
-8.20108296716444 2.76953354500246 -1.37099165161258 16 16 16
-8.18985373443898 2.7657413950093 -1.3691144380321 19 19 19
-8.12672773183911 2.86984645457482 -1.36504714194105 28 28 28
-8.15094213947467 2.87839745249127 -1.3691144380321 16 16 16
-8.10862757874534 2.98982291342386 -1.36880156910202 19 19 19
-8.10862757874534 2.98982291342386 -1.36880156910202 19 19 19
-5.50114151672042 1.11921989103194 0.689293006299514 31 31 31
-5.45834621496375 1.11051308848502 0.683930755189688 33 33 33
-5.35523401954667 1.16665078333646 0.672962514283224 17 17 17
-5.58022755314588 1.21566617300217 0.701236201953219 11 11 11
-5.56680310945971 1.29338742006473 0.701723679326839 2 2 2
-10.0005229878866 2.32351501791412 1.26061648818285 6 6 6
-9.814863716694 2.42529766479705 1.24136113192483 12 12 12
-6.00685847338213 1.48432217183829 0.759733486787689 6 6 6
-5.97786740909594 1.56603407668047 0.758758532040448 11 11 11
-5.82040350689682 1.52478293813637 0.738771959722004 16 16 16
-5.82752465050102 1.61283013773578 0.742428040024159 16 16 16
-5.81987195890483 1.61071217301124 0.741453085276917 13 13 13
-5.78157085881175 1.68736405601946 0.739503175782435 5 5 5
-5.78538204593028 1.68847635928645 0.739990653156056 8 8 8
-5.7463700199278 1.76342378762749 0.738040743661573 1 1 1
-7.01216552960146 2.15186621376604 0.90061444776404 45 45 45
-6.92136468158112 2.22887161137382 0.892814809786111 53 53 53
0 0 0 50 50 50
-7.17503720437475 2.42303440944546 0.929863090181275 1 1 1
-7.52109404463817 2.53989897860352 0.97471100855437 14 14 14
-7.42546200427687 2.62220373435981 0.96691137057644 33 33 33
-7.44418008344066 2.62881377654373 0.969348757444543 35 35 35
0 0 0 20 20 20
-7.3904646334351 2.72502100846416 0.96715510926325 24 24 24
-11.5391695463881 2.34767057765258 -1.44585789015867 29 29 29
-11.5138814135319 2.34252564887485 -1.44268928723014 19 19 19
-11.4436366227184 2.49302412954912 -1.43805825218074 21 21 21
-11.3776902421807 2.47865754981952 -1.42977113682919 25 25 25
-11.3250315429335 2.63125047562317 -1.4275774886479 27 27 27
-11.348234612511 2.63664146174362 -1.43050235288962 23 23 23
-11.3064609122018 2.79387814635073 -1.430014875516 23 23 23
-11.3353678345953 2.80102117893898 -1.43367095581816 14 14 14
-8.05178221854779 2.10934175506624 -1.02199631379557 33 33 33
-8.05370251003802 2.10984481773142 -1.02224005248238 22 22 22
-11.1193608892685 3.07740274475389 -1.41660924774143 25 25 25
-11.1270135808647 3.07952070947842 -1.41758420248868 29 29 29
-11.0943657020442 3.2379148101995 -1.41904663460954 25 25 25
-11.0867433278071 3.23569020366553 -1.4180716798623 14 14 14
-11.0372813857002 3.38707818653946 -1.41758420248868 14 14 14
-10.9936332646769 3.37368362012089 -1.41197821269204 17 17 17
-10.9045032971348 3.5115528444549 -1.40661596158221 17 17 17
-10.8704916770778 3.50060015840393 -1.40222866521963 21 21 21
-10.838725926294 3.66027452205353 -1.40466605208773 17 17 17
-10.8424874136882 3.66154478910959 -1.40515352946135 19 19 19
-10.7292029766864 3.78887617982114 -1.39711015279661 23 23 23
-10.7235875529373 3.78689316716596 -1.39637893673618 31 31 31
-10.6182053616969 3.91515745192898 -1.38955425350549 22 22 22
-10.6368305245836 3.92202494438982 -1.39199164037359 23 23 23
-8.98367842666322 1.82775003318771 1.45202470450342 1 1 1
-10.1315606302856 2.06128930698222 1.63755598004114 15 15 15
-7.5660173268102 1.6482753151108 1.22644620591541 7 7 7
-9.71422581781524 2.11626777065119 1.57466932509496 8 8 8
-9.33778144431759 2.16953407798293 1.51835291768048 1 1 1
-9.2358027885276 2.1458404233089 1.50177086438622 6 6 6
-9.73806146073411 2.40631947646889 1.58874842694858 3 3 3
-8.09843118327691 2.00115934405831 1.32124549172979 10 10 10
-7.74484941924008 2.02893394571346 1.26805777361611 13 13 13
-7.93211693542205 2.077992797596 1.298718928764 5 5 5
-9.85221298025327 2.72670592934823 1.61909671316639 11 11 11
-8.7689455047433 2.42690000204404 1.44107429195061 1 1 1
-9.12294066818932 2.66255011736803 1.5052124226171 1 1 1
-6.48144069920414 1.89162259429722 1.06938600301502 1 1 1
-9.09669388358842 2.79155820586835 1.50708963619758 16 16 16
-8.90595979966846 2.73302646852296 1.47548987425946 8 8 8
-7.31243425137729 2.35480687158492 1.21674726908292 11 11 11
-8.89751578233925 2.86524713714062 1.48049577714074 5 5 5
-7.14740662975833 2.41370347064455 1.19484644397728 7 7 7
-8.7363430604116 2.95029269467629 1.4604721656156 10 10 10
-8.88668760224717 3.13821623533726 1.49269766541388 11 11 11
-7.33324022008953 2.58963683054345 1.23176497772678 4 4 4
-7.34317313531178 2.70758363039665 1.23958670097879 5 5 5
-7.30981192470208 2.6952826446957 1.23395506023734 2 2 2
-15.2013209239817 3.09274369626166 -1.35718922606653 4 4 4
-15.216940056706 3.09592144472943 -1.3585837179505 4 4 4
-15.0676847131734 3.28253183885672 -1.34917089773375 4 4 4
-15.0209632101868 3.27235344555794 -1.34498742208186 8 8 8
-14.9161963845999 3.4656193832817 -1.339758077517 4 4 4
-14.9006708093882 3.46201218121739 -1.33836358563304 8 8 8
-14.8160652940996 3.66111742317335 -1.33522597889412 4 4 4
-8.05019109060608 1.9892389967686 -0.725484402631507 10 10 10
-8.02548697740132 2.10245313729141 -0.725833025602497 28 28 28
-8.02163227664368 2.10144331349828 -0.725484402631507 15 15 15
-14.6242860024852 4.04742847473803 -1.32755627353233 4 4 4
-14.6166051800049 4.04530272448869 -1.32685902759035 4 4 4
-14.5204471973877 4.23782416172551 -1.32337279788044 4 4 4
-14.3406629459975 4.18535373611932 -1.30698751824388 4 4 4
-14.365401249081 4.40839872712571 -1.31465722360568 4 4 4
-14.3501634858892 4.4037226213425 -1.31326273172171 4 4 4
-14.2330844635119 4.58344840395846 -1.30820769864235 4 4 4
-14.0946414034404 4.53886589449957 -1.29548296020119 12 12 12
-14.1177882743501 4.76762500313709 -1.30367560001947 8 8 8
-14.0649338724672 4.74977589228165 -1.2987948784256 8 8 8
-13.9304758351316 4.91936336557264 -1.29251966494777 20 20 20
-13.8421774717801 4.88818196595269 -1.28432702512949 28 28 28
-12.8200900735506 4.72703903118342 -1.19542816752688 3 3 3
-12.5434243793416 4.62502652365715 -1.16963006767357 7 7 7
-8.45720703870971 1.72063821872778 1.67759268735058 2 2 2
-9.77696227723448 1.98914545668212 1.9393826290072 11 11 11
-8.44802565796754 1.84042297975032 1.68064563127661 8 8 8
-6.65253246635591 1.44927041184698 1.32345119193171 14 14 14
-6.61661951810689 1.53730108283006 1.32039824800569 7 7 7
-6.5248282646765 1.51597436260583 1.30208058444954 14 14 14
-6.46109552967017 1.59656622368446 1.29368498865297 11 11 11
-6.38485841427584 1.57772768417195 1.27842026902285 21 21 21
-6.32422419691399 1.65676986844249 1.27078790920779 11 11 11
-6.27294670342549 1.6433365992389 1.26048422345745 10 10 10
-6.19671312718958 1.7150070202749 1.24979891971637 20 20 20
0 0 0 25 25 25
-6.35874224755212 1.85581278376254 1.28757910080092 3 3 3
-6.3719346588541 1.85966301775375 1.2902504267362 1 1 1
0 0 0 8 8 8
-7.01573021963144 2.15296013204359 1.42648804943505 2 2 2
-6.39111727116348 2.05811722196425 1.30513352837557 14 14 14
-6.37803603698274 2.0539047013345 1.30246220244029 19 19 19
-6.41532519870045 2.16647708736004 1.31620045010741 36 36 36
-6.40230482282602 2.16208006224798 1.31352912417213 14 14 14
-6.30894487052715 2.22792047011189 1.30055411248653 10 10 10
-6.32745703270592 2.23445779543498 1.30437029239406 14 14 14
-6.4434097711069 2.37582180056362 1.33489973165431 9 9 9
-6.41762139580802 2.36631307980665 1.32955707978376 18 18 18
-6.19637965284092 1.26066768847271 -0.33139127493032 45 45 45
-6.11809311269132 1.24474011186534 -0.327204398430885 20 20 20
-6.12767032567742 1.33492791526678 -0.328669805205687 15 15 15
-21.0409367679789 4.58381935745426 -1.12857256042284 4 4 4
-6.07755528235035 1.41205524829542 -0.326995054605913 1 1 1
0 0 0 12 12 12
-6.21042372971137 1.53462407668994 -0.335264135692298 15 15 15
-6.34033268690483 1.56672517351736 -0.342277153828853 1 1 1
-8.04510236982116 2.10759182151686 -0.435853843591236 10 10 10
-8.03544206438189 2.10506109166393 -0.435330484028807 17 17 17
-20.3692798035792 5.63741731205902 -1.10763817792566 4 4 4
-20.3692798035792 5.63741731205902 -1.10763817792566 4 4 4
-20.2157272739466 5.90000406487457 -1.1036606452512 4 4 4
-20.0968563434662 5.86531132473589 -1.09717098667707 4 4 4
-20.0121677307913 6.14125656650841 -1.09706631476459 4 4 4
-20.0121677307913 6.14125656650841 -1.09706631476459 4 4 4
-19.8571517444046 6.39455423055891 -1.0932981259151 4 4 4
-19.788711585209 6.37251459893612 -1.0895299370656 4 4 4
-19.6436642500664 6.63373206991647 -1.086599123516 4 4 4
0 0 0 12 12 12
0 0 0 12 12 12
0 0 0 12 12 12
-12.9020202924538 4.75724844003833 -0.720666117465337 2 2 2
0 0 0 12 12 12
-6.43350504942573 1.30891139565964 1.51572020416896 13 13 13
-6.43159543082987 1.30852287936529 1.51527030206027 10 10 10
-6.41294260556468 1.39707517672722 1.51527030206027 13 13 13
-6.50433846217606 1.41698598684685 1.53686560327729 13 13 13
-6.51835051151513 1.51446932564216 1.54496384123366 20 20 20
-6.45760874786676 1.50035662371422 1.53056697375566 20 20 20
-6.43792287376244 1.59084015454255 1.53101687586435 24 24 24
-6.47008411056936 1.59878734309007 1.53866521171204 36 36 36
-6.40377297780188 1.6776094242746 1.52831746321222 22 22 22
-6.42262423767178 1.68254792714264 1.5328164842991 27 27 27
-6.35186188950042 1.75794610928687 1.5215689315819 9 9 9
-6.50962546097234 1.80160887486348 1.55936070871167 7 7 7
-6.65406998716647 1.94200482823282 1.60030180060226 14 14 14
-7.81577295653121 2.28105037176179 1.87969101009734 5 5 5
-6.44036259985331 1.97639354412309 1.55531158973348 16 16 16
-6.35839096132466 1.95123840500205 1.53551589695122 17 17 17
-6.40508083602438 2.06261387757248 1.55351198129873 6 6 6
-6.38282164980014 2.05544580154269 1.54811315599448 6 6 6
-6.36974333591292 2.15108393763345 1.55216227497267 18 18 18
-6.28665972718362 2.12302632105562 1.53191668008172 18 18 18
-6.18696442836831 2.18484468967378 1.51482039995159 15 15 15
-6.35417968318908 2.24389454615145 1.55576149184217 15 15 15
-6.34457853175573 2.33938062712155 1.56116031714642 10 10 10
-6.52010577643831 2.40410124389494 1.60435091958045 15 15 15
-6.22353370503603 1.26619224283047 -0.110857685689625 12 12 12
-6.4214483474191 1.30645843191293 -0.114383071789956 11 11 11
-28.0907581063732 6.11964011837704 -0.50182649469765 5 5 5
-6.41454815769793 1.39742495017262 -0.114592500667204 11 11 11
-6.39467120095007 1.48573375492738 -0.114592500667204 16 16 16
-6.45505341454418 1.49976291922916 -0.115674549866315 2 2 2
-6.29953420747769 1.55664368285809 -0.11326611777797 24 24 24
-6.37330379141733 1.57487248407492 -0.114592500667204 16 16 16
-6.43000502668305 1.68448148744324 -0.116023597995061 24 24 24
-6.34489064004826 1.66218389856012 -0.11448778622858 8 8 8
-5.76632278415916 1.5958918628349 -0.104435200120705 11 11 11
-5.77017727799884 1.59695863547048 -0.104505009746454 11 11 11
-5.82026304908552 1.69865645608009 -0.105831392635687 48 48 48
-5.88361023926356 1.71714447159812 -0.106983251460548 24 24 24
-5.7255562210116 1.7570365295859 -0.104539914559328 30 30 30
-5.71790940135082 1.75468990316909 -0.10440029530783 22 22 22
-27.257183114581 8.77756980668573 -0.4998369203638 5 5 5
-27.163914820404 8.74753482620196 -0.498126584532946 2 2 2
-5.53217113681885 1.86823296404374 -0.101922053593736 5 5 5
-27.050801195719 9.13514734952618 -0.498370918223068 17 17 17
-26.8883371573829 9.49526077491276 -0.497742631591326 17 17 17
-26.937362176043 9.51257331209002 -0.498650156726065 17 17 17
-26.8355411959021 9.89483302599191 -0.499243538544932 2 2 2
0 0 0 10 10 10
0 0 0 37 37 37
-6.94188460980761 1.41234238619935 1.89817887678189 13 13 13
-7.13127310947453 1.55356522777299 1.95563670479465 3 3 3
-8.79045496845498 1.91502203963442 2.41064058608488 6 6 6
-9.18284146375452 2.13353542349759 2.5260738802006 17 17 17
-6.42610729482002 1.49303759656645 1.76773407805022 4 4 4
-6.31461362165718 1.56036987499398 1.74288744972037 0 0 0
-6.28648198984107 1.55341842024943 1.7351228783673 11 11 11
-6.4921723358225 1.7007675837892 1.79827472537231 18 18 18
-6.54262963376931 1.71398598469948 1.81225095380785 12 12 12
-6.57981728282244 1.82103521666243 1.82933301078462 17 17 17
-6.66360103430151 1.84422327120397 1.85262672484384 9 9 9
-6.60753035394843 1.92842213484547 1.84434451540056 9 9 9
-6.63163866003918 1.93545819652186 1.85107381057323 15 15 15
-7.55729560583558 2.31915362137272 2.11817506511903 4 4 4
-6.82779126460756 2.09528615303395 1.91370801948804 4 4 4
-6.68608289379778 2.15310434269354 1.88213209598553 5 5 5
-6.62540062330952 2.13356296664599 1.86505003900876 3 3 3
-6.57444370989618 2.22021194849385 1.85935602001651 10 10 10
-6.62569215752344 2.23751872314804 1.87384988654225 7 7 7
-6.6306443113679 2.34152437443841 1.88420264834635 9 9 9
-6.53774242678554 2.30871730215919 1.85780310574589 11 11 11
-6.53610274058669 2.40999966375596 1.86660295327938 10 10 10
-6.43097407753788 2.37123649667392 1.83657994404749 9 9 9
-6.11852889225564 0.207248847385698 -1.64039510785978 11 11 11
-6.0934292155124 0.206398662779825 -1.63366581268711 22 22 22
-6.08609419100423 0.291271401772432 -1.6326305365067 22 22 22
-6.06293847436122 0.290163203668034 -1.62641887942424 24 24 24
-6.04473365460226 0.375006790788464 -1.62279541279281 22 22 22
-6.03702107577661 0.37452831322446 -1.62072486043199 22 22 22
-6.03706229644828 0.458167710024006 -1.6222777747026 24 24 24
-6.00431498979875 0.455682435272759 -1.61347792716911 26 26 26
-5.9955373436779 0.5382518615093 -1.61296028907891 26 26 26
-5.97629620971231 0.536524480695727 -1.60778390817686 26 26 26
-5.9625660707789 0.618274895019386 -1.60623099390624 32 32 32
-5.95103677769973 0.61707939087175 -1.60312516536501 24 24 24
-5.91881796594443 0.697395965774237 -1.59691350828255 26 26 26
-5.92073654551199 0.697622026054877 -1.59743114637276 30 30 30
-5.88743625622263 0.777186506456467 -1.5912194892903 26 26 26
-5.89701243751122 0.778450635452005 -1.59380767974132 24 24 24
-5.89321483049948 0.861828074434559 -1.59587823210214 22 22 22
-5.83013468473026 0.852603187487968 -1.57879617512538 32 32 32
-5.81193989643869 0.933002859734339 -1.57724326085476 26 26 26
-5.85390336139493 0.939739342476103 -1.58863129883927 20 20 20
-5.8061356243947 1.01437714412404 -1.57931381321558 32 32 32
-5.80803865147579 1.01470961778648 -1.57983145130579 32 32 32
-5.78381395085682 1.09390853272213 -1.57724326085476 32 32 32
-5.75913735703958 1.08924138112207 -1.5705139656821 32 32 32
-6.95295272355101 0.235512729163884 0.121433843990619 11 11 11
-6.8870005994127 0.233278776860806 0.120281985165758 14 14 14
-6.89305924799767 0.329891547296842 0.120456509230131 8 8 8
-7.14273540157626 0.341840676074618 0.124819610839452 1 1 1
-7.05535895527712 0.437704565802448 0.123388513511594 3 3 3
-7.13120156922353 0.442409735109518 0.124714896400828 6 6 6
-7.15233937951642 0.542808868604099 0.125203563781072 9 9 9
-5.88417995789042 0.446565088165792 0.103004102792847 3 3 3
-6.11049074070948 0.548571850593233 0.107087965899172 15 15 15
-5.91729725901169 0.531227825330018 0.103702199050339 15 15 15
-5.87360784945848 0.609050572086088 0.103073912418596 9 9 9
-5.85968463410251 0.607606835545417 0.102829578728474 15 15 15
-5.86254568258173 0.690765577134503 0.103039007605722 3 3 3
-5.8784333402581 0.692637570568472 0.103318246108718 18 18 18
-6.41734113055649 0.847137992997405 0.112986879274973 22 22 22
-5.97127942083291 0.7882544439012 0.105133296378196 39 39 39
-6.20702277302622 0.907719578923828 0.109496397987517 58 58 58
-5.99332865141741 0.876468793293043 0.105726678197064 16 16 16
-5.84229788808215 0.937876291587358 0.103283341295844 22 22 22
-5.67249808464346 0.910617974224562 0.100281527388631 7 7 7
-5.48802590086897 0.958800896212717 0.0972448086685437 36 36 36
-5.77562524815069 1.00904674360936 0.102340911348231 11 11 11
-28.0660809486472 5.30821456060963 0.498580347100315 7 7 7
-5.6037848547705 1.05985913797666 0.0995485263182651 15 15 15
-7.05234346893542 0.238879325576919 -1.62909553555827 23 23 23
-7.06402920790631 0.239275148817312 -1.6317949482104 25 25 25
-7.02106958742768 0.336017931450123 -1.62279690603664 31 31 31
-7.01912307520494 0.335924774274783 -1.62234700392795 31 31 31
-6.92225776477397 0.429447154781086 -1.60120160481963 23 23 23
-6.97088278419497 0.432463782729815 -1.61244915753682 29 29 29
-6.97008696259018 0.528977278269416 -1.61379886386289 27 27 27
-6.96620065817836 0.528682336937791 -1.61289905964551 27 27 27
-6.96213106434526 0.625028215261982 -1.61379886386289 25 25 25
-6.92331237984933 0.621543251697655 -1.60480082168913 28 28 28
-6.91989970093857 0.717543455343814 -1.6061505280152 27 27 27
-6.89857788113176 0.715332537134071 -1.60120160481963 28 28 28
-6.89372388958772 0.812266107425865 -1.60255131114569 29 29 29
-6.89372388958772 0.812266107425865 -1.60255131114569 29 29 29
-6.87591497270389 0.907673239040056 -1.60120160481963 28 28 28
-6.82375152671822 0.900787266167316 -1.58905424788506 39 39 39
-6.77001658421499 0.990052208256173 -1.57960630360262 29 29 29
-6.79701180841863 0.99400000971319 -1.58590493312425 28 28 28
-6.76515390870084 1.08602429753764 -1.58185581414606 29 29 29
-6.78054675035886 1.08849534258323 -1.58545503101556 29 29 29
-6.7380191315611 1.17718445552822 -1.57915640149393 29 29 29
-6.75337644012307 1.1798674970223 -1.58275561836343 29 29 29
-6.70560792432651 1.26824994507703 -1.57555718462443 24 24 24
-6.65773807906433 1.25919619047197 -1.56430963190724 28 28 28
-6.66302950651334 0.225692353446207 0.349394843877893 23 23 23
-6.64306836359389 0.225016222968537 0.348348124753034 12 12 12
-6.74102286719078 0.322615312593888 0.353686392289814 9 9 9
-6.76097262412239 0.323570078242287 0.354733111414673 15 15 15
-6.83944671913189 0.424309673753377 0.359129331739081 6 6 6
-6.89725609099281 0.427896086035174 0.362164817201171 27 27 27
0 0 0 6 6 6
-5.74158681364063 0.435743338917903 0.301769123696814 17 17 17
-5.83449610876474 0.523794317589043 0.307002719321109 17 17 17
-5.92401275550678 0.531830711824129 0.311712955382974 10 10 10
-5.81479996967783 0.602952621092155 0.306374687846193 19 19 19
-5.93002320105511 0.614900435244305 0.312445658770375 40 40 40
-5.92085981540124 0.697636550563648 0.312445658770375 29 29 29
0 0 0 6 6 6
-5.58976900478143 0.73789215809056 0.295488808947661 24 24 24
-5.60164949150785 0.739460472985545 0.296116840422576 7 7 7
-5.69947210741078 0.833494996008317 0.3018737956093 7 7 7
