ply
format ascii 1.0
element vertex 1551
property float x
property float y
property float z
property uchar red
property uchar green
property uchar blue
end_header
-32.316 22.076 0.146 0 255 0
-32.502 22.054 0.146 0 255 0
-32.452 21.946 0.146 0 255 0
-33.855 22.739 0.143 0 255 0
-33.701 22.483 0.144 0 255 0
-34.214 22.669 0.143 0 255 0
-32.037 21.084 0.147 0 255 0
-31.894 20.847 0.147 0 255 0
-32.036 20.797 0.147 0 255 0
-32.818 21.157 0.146 0 255 0
-32.363 20.792 0.147 0 255 0
-31.693 20.222 0.148 0 255 0
-32.947 20.876 0.146 0 255 0
-32.906 20.706 0.146 0 255 0
-32.834 20.516 0.146 0 255 0
-32.976 20.461 0.146 0 255 0
-32.901 20.272 0.147 0 255 0
-33.173 20.368 0.146 0 255 0
-32.832 20.017 0.147 0 255 0
-38.714 23.431 0.136 0 255 0
-32.502 19.537 0.148 0 255 0
-32.65 19.486 0.148 0 255 0
-32.774 19.421 0.147 0 255 0
-32.842 19.322 0.147 0 255 0
-33.054 19.377 0.147 0 255 0
-34.394 20.016 0.145 0 255 0
-34.573 19.975 0.145 0 255 0
-37.275 21.378 0.14 0 255 0
-37.389 21.288 0.14 0 255 0
-37.259 21.059 0.14 0 255 0
-37.258 20.905 0.14 0 255 0
-37.6 20.941 0.14 0 255 0
-37.643 20.888 0.14 0 255 0
-37.758 20.797 0.14 0 255 0
-30.327 16.586 0.153 0 255 0
-30.133 16.357 0.153 0 255 0
-32.653 17.458 0.149 0 255 0
-32.728 17.366 0.149 0 255 0
-34.574 18.274 0.146 0 255 0
-52.414 27.479 0.115 0 255 0
-52.765 27.451 0.114 0 255 0
-52.364 27.034 0.115 0 255 0
-52.144 26.714 0.116 0 255 0
-52.336 26.605 0.116 0 255 0
-52.186 26.323 0.116 0 255 0
-34.955 17.298 0.146 0 255 0
-34.978 17.173 0.146 0 255 0
-35.028 17.061 0.146 0 255 0
-35.026 16.924 0.146 0 255 0
-34.994 16.773 0.146 0 255 0
-35.009 16.645 0.146 0 255 0
-34.986 16.567 0.146 0 255 0
-34.975 16.428 0.147 0 255 0
-34.99 16.301 0.147 0 255 0
-34.977 16.161 0.147 0 255 0
-34.984 16.032 0.147 0 255 0
-34.985 15.899 0.147 0 255 0
-34.997 15.772 0.147 0 255 0
-34.903 15.664 0.147 0 255 0
-34.91 15.535 0.147 0 255 0
-35.213 15.538 0.147 0 255 0
-58.546 25.595 0.107 0 255 0
-58.54 25.374 0.108 0 255 0
-42.214 16.292 0.136 0 255 0
-42.283 16.167 0.136 0 255 0
-42.296 16.02 0.136 0 255 0
-43.826 16.441 0.134 0 255 0
-43.801 16.353 0.134 0 255 0
-43.804 16.197 0.134 0 255 0
-43.789 16.036 0.134 0 255 0
-39.334 14.128 0.142 0 255 0
-39.36 13.997 0.142 0 255 0
-39.419 13.879 0.142 0 255 0
-39.435 13.815 0.142 0 255 0
-39.682 13.762 0.141 0 255 0
-39.623 13.602 0.142 0 255 0
-48.843 -9.839 0.129 0 255 0
-76.737 -15.598 0.085 0 255 0
-75.076 -15.506 0.088 0 255 0
-73.866 -15.498 0.09 0 255 0
-70.619 -15.047 0.095 0 255 0
-70.521 -15.258 0.095 0 255 0
-70.162 -15.411 0.095 0 255 0
-69.182 -15.423 0.097 0 255 0
-67.955 -15.374 0.099 0 255 0
-66.73 -15.206 0.1 0 255 0
-66.043 -15.268 0.101 0 255 0
-65.414 -15.339 0.102 0 255 0
-62.597 -14.885 0.107 0 255 0
-62.159 -14.987 0.107 0 255 0
-61.168 -14.951 0.109 0 255 0
-60.645 -15.025 0.11 0 255 0
-59.242 -14.776 0.112 0 255 0
-58.437 -14.77 0.113 0 255 0
-58.253 -14.918 0.113 0 255 0
-57.48 -14.912 0.114 0 255 0
-56.808 -14.928 0.115 0 255 0
-56.154 -14.945 0.116 0 255 0
-55.632 -14.993 0.117 0 255 0
-54.984 -15.004 0.118 0 255 0
-53.964 -14.816 0.12 0 255 0
-53.215 -14.79 0.121 0 255 0
-52.252 -14.699 0.122 0 255 0
-51.431 -14.642 0.124 0 255 0
-51.173 -14.742 0.124 0 255 0
-50.32 -14.668 0.125 0 255 0
-49.992 -14.742 0.126 0 255 0
-49.532 -14.691 0.126 0 255 0
-48.736 -14.621 0.128 0 255 0
-48.273 -14.648 0.128 0 255 0
-47.565 -14.596 0.129 0 255 0
-47.244 -14.66 0.13 0 255 0
-46.83 -14.692 0.13 0 255 0
-46.263 -14.674 0.131 0 255 0
-45.51 -14.514 0.132 0 255 0
-44.726 -14.418 0.134 0 255 0
-44.348 -14.45 0.134 0 255 0
-43.968 -14.479 0.135 0 255 0
-43.638 -14.522 0.135 0 255 0
-43.105 -14.495 0.136 0 255 0
-42.58 -14.467 0.137 0 255 0
-42.343 -14.461 0.137 0 255 0
-41.818 -14.428 0.138 0 255 0
-41.398 -14.429 0.139 0 255 0
-41.073 -14.46 0.139 0 255 0
-39.931 -14.198 0.141 0 255 0
-39.836 -14.305 0.141 0 255 0
-39.755 -14.418 0.141 0 255 0
-39.46 -14.451 0.141 0 255 0
-39.032 -14.363 0.142 0 255 0
-38.848 -14.434 0.142 0 255 0
-38.448 -14.423 0.143 0 255 0
-37.973 -14.381 0.144 0 255 0
-37.619 -14.382 0.144 0 255 0
-37.475 -14.462 0.144 0 255 0
-37.146 -14.469 0.145 0 255 0
-36.611 -14.327 0.146 0 255 0
-36.343 -14.353 0.146 0 255 0
-36.164 -14.414 0.146 0 255 0
-35.861 -14.423 0.147 0 255 0
-35.522 -14.417 0.147 0 255 0
-35.199 -14.415 0.148 0 255 0
-35.021 -14.47 0.148 0 255 0
-34.355 -14.321 0.149 0 255 0
-34.333 -14.375 0.149 0 255 0
-33.974 -14.35 0.149 0 255 0
-33.537 -14.29 0.15 0 255 0
-33.51 -14.403 0.15 0 255 0
-33.276 -14.426 0.15 0 255 0
-33.035 -14.445 0.151 0 255 0
-32.673 -14.408 0.151 0 255 0
-32.44 -14.366 0.151 0 255 0
-32.188 -14.376 0.152 0 255 0
-32.141 -14.476 0.152 0 255 0
-31.485 -14.3 0.153 0 255 0
-31.193 -14.285 0.153 0 255 0
-31.077 -14.35 0.153 0 255 0
-30.853 -14.364 0.154 0 255 0
-30.647 -14.327 0.154 0 255 0
-30.542 -14.395 0.154 0 255 0
-30.251 -14.374 0.155 0 255 0
-29.928 -14.335 0.155 0 255 0
-29.458 -14.224 0.156 0 255 0
-29.187 -14.206 0.156 0 255 0
-29.113 -14.283 0.156 0 255 0
-29.027 -14.354 0.156 0 255 0
-28.763 -14.28 0.157 0 255 0
-28.45 -14.235 0.157 0 255 0
-28.257 -14.25 0.157 0 255 0
-27.879 -14.169 0.158 0 255 0
-27.658 -14.166 0.158 0 255 0
-27.624 -14.258 0.158 0 255 0
-27.4 -14.252 0.159 0 255 0
-27.15 -14.176 0.159 0 255 0
-26.98 -14.195 0.159 0 255 0
-26.713 -14.162 0.16 0 255 0
-26.545 -14.179 0.16 0 255 0
-26.412 -14.215 0.16 0 255 0
-26.279 -14.25 0.16 0 255 0
-25.933 -14.168 0.161 0 255 0
-25.745 -14.17 0.161 0 255 0
-25.595 -14.14 0.161 0 255 0
-25.548 -14.219 0.161 0 255 0
-25.378 -14.229 0.161 0 255 0
-25.046 -14.146 0.162 0 255 0
-24.649 -14.023 0.163 0 255 0
-24.596 -14.096 0.163 0 255 0
-24.612 -14.208 0.162 0 255 0
-24.339 -14.101 0.163 0 255 0
-23.987 -13.998 0.163 0 255 0
-23.878 -14.034 0.164 0 255 0
-23.937 -14.17 0.163 0 255 0
-23.665 -14.11 0.164 0 255 0
-23.355 -14.025 0.164 0 255 0
-23.174 -14.015 0.165 0 255 0
-23.125 -14.035 0.165 0 255 0
-23.053 -14.091 0.165 0 255 0
-22.958 -14.131 0.165 0 255 0
-22.82 -14.145 0.165 0 255 0
-22.714 -14.179 0.165 0 255 0
-22.467 -14.122 0.165 0 255 0
-22.393 -14.175 0.165 0 255 0
-22.359 -14.202 0.165 0 255 0
-22.195 -14.196 0.166 0 255 0
-22.113 -14.241 0.166 0 255 0
-21.79 -14.13 0.166 0 255 0
-21.687 -14.16 0.166 0 255 0
-21.566 -14.177 0.166 0 255 0
-21.386 -14.156 0.167 0 255 0
-21.277 -14.132 0.167 0 255 0
-21.165 -14.153 0.167 0 255 0
-21.138 -14.231 0.167 0 255 0
-20.951 -14.201 0.167 0 255 0
-20.768 -14.172 0.168 0 255 0
-20.702 -14.222 0.168 0 255 0
-20.358 -14.08 0.168 0 255 0
-20.307 -14.139 0.168 0 255 0
-20.244 -14.143 0.168 0 255 0
-20.173 -14.188 0.168 0 255 0
-17.433 69.206 -0.357 0 255 0
-18.171 71.194 -0.373 0 255 0
-18.472 71.436 -0.376 0 255 0
-18.659 71.233 -0.375 0 255 0
-18.822 70.946 -0.373 0 255 0
-19.475 71.59 -0.379 0 255 0
-19.554 71.436 -0.378 0 255 0
-19.732 71.209 -0.377 0 255 0
-20.449 72.908 -0.391 0 255 0
-20.733 73.036 -0.393 0 255 0
-20.886 72.705 -0.391 0 255 0
-20.972 72.15 -0.387 0 255 0
-21.265 72.31 -0.388 0 255 0
-22.957 63.419 -0.326 0 255 0
-14.388 39.332 -0.124 0 255 0
-14.431 39.067 -0.122 0 255 0
-14.495 39.052 -0.122 0 255 0
-14.499 38.687 -0.12 0 255 0
-14.319 37.845 -0.113 0 255 0
-14.464 37.867 -0.114 0 255 0
-14.374 37.28 -0.109 0 255 0
-14.528 37.33 -0.11 0 255 0
-15.054 38.326 -0.119 0 255 0
-14.725 37.315 -0.11 0 255 0
-14.905 37.426 -0.112 0 255 0
-15.146 37.687 -0.114 0 255 0
-15.167 37.399 -0.112 0 255 0
-15.236 37.232 -0.111 0 255 0
-15.307 37.073 -0.11 0 255 0
-15.395 36.957 -0.11 0 255 0
-15.796 37.587 -0.116 0 255 0
-15.824 37.488 -0.115 0 255 0
-25.381 59.647 -0.305 0 255 0
-16.121 37.533 -0.116 0 255 0
-16.2 37.392 -0.115 0 255 0
-16.33 37.371 -0.116 0 255 0
-26.142 59.354 -0.305 0 255 0
-26.283 59.169 -0.305 0 255 0
-26.248 58.841 -0.302 0 255 0
-26.316 58.497 -0.3 0 255 0
-26.382 58.154 -0.298 0 255 0
-26.444 57.807 -0.295 0 255 0
-26.5 57.451 -0.293 0 255 0
-26.564 57.117 -0.291 0 255 0
-26.621 56.773 -0.288 0 255 0
-26.592 56.479 -0.286 0 255 0
-26.648 56.141 -0.284 0 255 0
-26.708 55.813 -0.282 0 255 0
-26.766 55.486 -0.28 0 255 0
-26.825 55.164 -0.278 0 255 0
-26.884 54.848 -0.276 0 255 0
-26.942 54.532 -0.274 0 255 0
-26.906 54.244 -0.271 0 255 0
-26.964 53.934 -0.27 0 255 0
-27.017 53.616 -0.267 0 255 0
-27.075 53.315 -0.266 0 255 0
-27.126 53.002 -0.264 0 255 0
-27.187 52.712 -0.262 0 255 0
-27.303 52.531 -0.261 0 255 0
-27.539 52.581 -0.262 0 255 0
-27.678 52.644 -0.263 0 255 0
-27.905 52.674 -0.264 0 255 0
-28.127 52.693 -0.265 0 255 0
-28.36 52.73 -0.266 0 255 0
-28.583 52.746 -0.267 0 255 0
-28.816 52.78 -0.268 0 255 0
-29.044 52.804 -0.269 0 255 0
-29.272 52.824 -0.27 0 255 0
-29.426 52.906 -0.271 0 255 0
-29.658 52.932 -0.272 0 255 0
-29.886 52.948 -0.273 0 255 0
-30.126 52.982 -0.275 0 255 0
-30.367 53.018 -0.276 0 255 0
-30.601 53.04 -0.277 0 255 0
-16.807 28.897 -0.058 0 255 0
-16.777 28.741 -0.056 0 255 0
-16.954 28.837 -0.058 0 255 0
-17.205 29.055 -0.06 0 255 0
-17.149 28.754 -0.058 0 255 0
-17.538 29.197 -0.063 0 255 0
-17.599 29.092 -0.062 0 255 0
-17.539 28.787 -0.06 0 255 0
-32.262 52.807 -0.282 0 255 0
-32.508 52.837 -0.283 0 255 0
-32.757 52.869 -0.284 0 255 0
-32.984 52.864 -0.285 0 255 0
-27.236 43.339 -0.198 0 255 0
-27.31 43.155 -0.197 0 255 0
-33.789 53.035 -0.29 0 255 0
-27.424 42.739 -0.194 0 255 0
-27.626 42.904 -0.196 0 255 0
-34.816 53.711 -0.299 0 255 0
-27.931 42.785 -0.197 0 255 0
-28.029 42.642 -0.196 0 255 0
-29.382 44.399 -0.214 0 255 0
-27.55 41.344 -0.186 0 255 0
-27.689 41.271 -0.186 0 255 0
-36.318 53.963 -0.307 0 255 0
-36.568 53.968 -0.308 0 255 0
-27.988 41.016 -0.186 0 255 0
-28.13 40.947 -0.186 0 255 0
-25.727 37.194 -0.151 0 255 0
-25.914 37.215 -0.152 0 255 0
-37.865 54.036 -0.314 0 255 0
-38.207 54.16 -0.317 0 255 0
-38.397 54.249 -0.318 0 255 0
-38.671 54.274 -0.32 0 255 0
-38.965 54.325 -0.321 0 255 0
-39.254 54.366 -0.323 0 255 0
-39.518 54.372 -0.324 0 255 0
-39.808 54.411 -0.326 0 255 0
-28.169 38.237 -0.169 0 255 0
-26.806 36.265 -0.15 0 255 0
-27.69 37.216 -0.16 0 255 0
-26.967 36.006 -0.149 0 255 0
-27.05 35.881 -0.148 0 255 0
-27.242 35.901 -0.149 0 255 0
-27.213 35.63 -0.148 0 255 0
-27.288 35.496 -0.147 0 255 0
-27.549 35.72 -0.15 0 255 0
-27.268 34.899 -0.143 0 255 0
-27.279 34.688 -0.142 0 255 0
-27.234 34.407 -0.14 0 255 0
-27.533 34.563 -0.142 0 255 0
-27.661 34.499 -0.143 0 255 0
-26.782 33.081 -0.13 0 255 0
-26.854 32.958 -0.129 0 255 0
-26.941 32.853 -0.129 0 255 0
-27.272 33.045 -0.132 0 255 0
-27.439 33.036 -0.133 0 255 0
-27.256 32.605 -0.129 0 255 0
-27.384 32.55 -0.129 0 255 0
-27.401 32.467 -0.129 0 255 0
-27.495 32.372 -0.129 0 255 0
-27.815 32.541 -0.132 0 255 0
-28.134 32.705 -0.134 0 255 0
-28.465 32.882 -0.137 0 255 0
-28.219 32.391 -0.133 0 255 0
-28.396 32.388 -0.134 0 255 0
-28.975 32.84 -0.139 0 255 0
-28.993 32.757 -0.139 0 255 0
-28.591 32.098 -0.133 0 255 0
-27.539 30.72 -0.119 0 255 0
-27.643 30.643 -0.119 0 255 0
-27.895 30.728 -0.121 0 255 0
-27.889 30.528 -0.12 0 255 0
-27.774 30.21 -0.118 0 255 0
-27.694 30.028 -0.116 0 255 0
-27.539 29.672 -0.113 0 255 0
-28.145 30.136 -0.119 0 255 0
-28.25 30.057 -0.119 0 255 0
-28.463 30.095 -0.121 0 255 0
-28.511 29.956 -0.12 0 255 0
-28.765 30.034 -0.122 0 255 0
-28.837 29.92 -0.122 0 255 0
-29.029 30.025 -0.123 0 255 0
-29.202 30.015 -0.124 0 255 0
-30.869 31.532 -0.142 0 255 0
-31.015 31.482 -0.142 0 255 0
-31.192 31.464 -0.143 0 255 0
-28.355 28.419 -0.111 0 255 0
-28.466 28.352 -0.111 0 255 0
-28.599 28.395 -0.112 0 255 0
-30.085 29.685 -0.127 0 255 0
-30.017 29.432 -0.126 0 255 0
-28.953 28.209 -0.113 0 255 0
-28.976 28.056 -0.112 0 255 0
-27.816 26.594 -0.097 0 255 0
-29.67 28.28 -0.117 0 255 0
-29.66 28.093 -0.116 0 255 0
-29.919 28.16 -0.118 0 255 0
-30.179 28.227 -0.12 0 255 0
-30.218 27.91 -0.118 0 255 0
-29.664 27.225 -0.112 0 255 0
-29.699 27.085 -0.111 0 255 0
-29.59 26.901 -0.109 0 255 0
-21.62 19.522 -0.024 0 255 0
-21.751 19.517 -0.024 0 255 0
-21.939 19.561 -0.026 0 255 0
-22.109 19.589 -0.027 0 255 0
-22.234 19.575 -0.028 0 255 0
-30.735 26.902 -0.116 0 255 0
-30.882 26.946 -0.117 0 255 0
-29.875 25.9 -0.106 0 255 0
-29.995 25.84 -0.106 0 255 0
-30.148 25.807 -0.107 0 255 0
-30.076 25.583 -0.105 0 255 0
-30.147 25.48 -0.105 0 255 0
-30.282 25.432 -0.106 0 255 0
-30.373 25.427 -0.106 0 255 0
-30.347 25.243 -0.105 0 255 0
-30.369 25.1 -0.105 0 255 0
-30.448 25.005 -0.105 0 255 0
-33.732 27.528 -0.137 0 255 0
-30.859 25.02 -0.107 0 255 0
-30.744 24.767 -0.105 0 255 0
-30.713 24.583 -0.104 0 255 0
-30.768 24.548 -0.104 0 255 0
-30.847 24.452 -0.104 0 255 0
-34.631 27.279 -0.142 0 255 0
-34.553 27.042 -0.14 0 255 0
-31.56 24.538 -0.109 0 255 0
-35.138 27.146 -0.144 0 255 0
-35.402 27.174 -0.146 0 255 0
-35.617 27.249 -0.148 0 255 0
-33.506 25.466 -0.126 0 255 0
-35.779 27.019 -0.148 0 255 0
-16.79 12.579 0.041 0 255 0
-16.82 12.519 0.041 0 255 0
-31.669 23.446 -0.105 0 255 0
-31.948 23.498 -0.107 0 255 0
-32.05 23.495 -0.107 0 255 0
-31.789 23.15 -0.104 0 255 0
-32.048 23.185 -0.106 0 255 0
-32.206 23.146 -0.107 0 255 0
-32.367 23.108 -0.108 0 255 0
-32.429 22.999 -0.108 0 255 0
-33.873 23.864 -0.121 0 255 0
-35.128 24.585 -0.132 0 255 0
-35.195 24.55 -0.132 0 255 0
-35.24 24.417 -0.132 0 255 0
-34.546 23.775 -0.125 0 255 0
-34.604 23.655 -0.125 0 255 0
-31.265 21.226 -0.092 0 255 0
-34.913 23.546 -0.126 0 255 0
-32.69 21.896 -0.104 0 255 0
-32.295 21.557 -0.1 0 255 0
-32.294 21.41 -0.1 0 255 0
-32.518 21.412 -0.101 0 255 0
-32.964 21.558 -0.105 0 255 0
-32.589 21.166 -0.1 0 255 0
-32.724 21.108 -0.101 0 255 0
-31.706 20.31 -0.091 0 255 0
-32.686 20.867 -0.1 0 255 0
-31.433 19.927 -0.087 0 255 0
-31.398 19.766 -0.087 0 255 0
-32.092 20.063 -0.092 0 255 0
-32.11 19.935 -0.092 0 255 0
-31.952 19.697 -0.09 0 255 0
-31.884 19.517 -0.089 0 255 0
-31.807 19.333 -0.088 0 255 0
-32.658 19.78 -0.095 0 255 0
-32.555 19.579 -0.094 0 255 0
-32.507 19.411 -0.093 0 255 0
-32.404 19.211 -0.091 0 255 0
-33.228 19.56 -0.098 0 255 0
-33.308 19.466 -0.098 0 255 0
-33.312 19.328 -0.098 0 255 0
-33.273 19.236 -0.097 0 255 0
-33.349 19.14 -0.097 0 255 0
-37.942 21.622 -0.138 0 255 0
-37.78 21.373 -0.136 0 255 0
-37.792 21.223 -0.136 0 255 0
-37.923 21.14 -0.136 0 255 0
-37.929 20.988 -0.136 0 255 0
-37.917 20.903 -0.135 0 255 0
-30.162 16.498 -0.065 0 255 0
-40.168 21.818 -0.154 0 255 0
-32.578 17.425 -0.085 0 255 0
-32.639 17.327 -0.085 0 255 0
-34.533 18.195 -0.102 0 255 0
-51.947 27.176 -0.256 0 255 0
-52.055 27.129 -0.257 0 255 0
-52.268 27.032 -0.258 0 255 0
-52.401 26.892 -0.258 0 255 0
-52.451 26.71 -0.258 0 255 0
-52.947 26.753 -0.262 0 255 0
-53.119 26.631 -0.263 0 255 0
-34.872 17.336 -0.101 0 255 0
-34.877 17.27 -0.101 0 255 0
-34.903 17.147 -0.101 0 255 0
-34.904 17.012 -0.1 0 255 0
-34.914 16.881 -0.1 0 255 0
-34.911 16.744 -0.099 0 255 0
-34.908 16.608 -0.099 0 255 0
-34.918 16.478 -0.098 0 255 0
-34.912 16.341 -0.098 0 255 0
-34.883 16.261 -0.097 0 255 0
-34.878 16.125 -0.097 0 255 0
-34.881 15.994 -0.097 0 255 0
-34.884 15.863 -0.096 0 255 0
-34.866 15.723 -0.096 0 255 0
-34.826 15.573 -0.095 0 255 0
-34.843 15.45 -0.095 0 255 0
-34.791 15.361 -0.094 0 255 0
-42.254 16.482 -0.152 0 255 0
-42.274 16.337 -0.151 0 255 0
-43.711 16.735 -0.163 0 255 0
-42.15 15.985 -0.149 0 255 0
-43.729 16.428 -0.162 0 255 0
-43.728 16.271 -0.162 0 255 0
-43.712 16.187 -0.162 0 255 0
-43.708 16.029 -0.161 0 255 0
-43.721 15.878 -0.161 0 255 0
-43.738 15.729 -0.161 0 255 0
-39.352 13.871 -0.123 0 255 0
-39.41 13.752 -0.123 0 255 0
-43.734 15.11 -0.159 0 255 0
-43.603 14.988 -0.158 0 255 0
-74.727 18.303 -0.401 0 255 0
-74.749 18.06 -0.4 0 255 0
-74.948 17.859 -0.402 0 255 0
-75.912 17.837 -0.409 0 255 0
-76.63 17.752 -0.414 0 255 0
30.475 17.838 1.403 255 105 180
30.318 17.874 1.399 255 105 180
30.18 17.856 1.395 255 105 180
30.017 17.887 1.391 255 105 180
29.849 17.915 1.386 255 105 180
29.682 17.941 1.382 255 105 180
29.519 17.97 1.378 255 105 180
29.355 17.996 1.373 255 105 180
29.192 18.022 1.369 255 105 180
29.036 18.053 1.365 255 105 180
28.913 18.039 1.361 255 105 180
28.757 18.067 1.358 255 105 180
28.619 18.106 1.354 255 105 180
28.327 18.046 1.345 255 105 180
28.294 18.15 1.346 255 105 180
28.136 18.174 1.342 255 105 180
27.994 18.206 1.338 255 105 180
27.866 18.186 1.334 255 105 180
27.72 18.215 1.331 255 105 180
27.773 18.375 1.335 255 105 180
23.733 15.805 1.173 255 105 180
27.256 18.279 1.319 255 105 180
23.585 15.921 1.171 255 105 180
23.467 15.949 1.169 255 105 180
23.358 15.928 1.165 255 105 180
23.247 15.96 1.163 255 105 180
23.133 15.988 1.16 255 105 180
22.995 16 1.156 255 105 180
22.878 16.025 1.154 255 105 180
22.756 16.047 1.151 255 105 180
22.642 16.073 1.148 255 105 180
22.52 16.093 1.145 255 105 180
22.421 16.075 1.142 255 105 180
22.299 16.094 1.139 255 105 180
22.194 16.124 1.137 255 105 180
22.075 16.144 1.134 255 105 180
21.95 16.159 1.131 255 105 180
21.845 16.187 1.129 255 105 180
21.724 16.203 1.126 255 105 180
21.642 16.195 1.123 255 105 180
21.546 16.23 1.121 255 105 180
18.495 14.018 0.994 255 105 180
18.379 14.021 0.991 255 105 180
18.289 14.044 0.989 255 105 180
18.274 14.123 0.99 255 105 180
18.173 14.09 0.987 255 105 180
18.114 14.136 0.986 255 105 180
18.043 14.172 0.985 255 105 180
18.066 14.282 0.988 255 105 180
17.996 14.319 0.987 255 105 180
18.074 14.474 0.992 255 105 180
18.022 14.526 0.992 255 105 180
18.049 14.642 0.995 255 105 180
20.936 17.044 1.122 255 105 180
20.942 17.158 1.125 255 105 180
20.951 17.276 1.127 255 105 180
20.965 17.399 1.13 255 105 180
20.989 17.53 1.134 255 105 180
24.036 20.209 1.271 255 105 180
24.048 20.349 1.274 255 105 180
21.379 18.144 1.157 255 105 180
21.134 18.166 1.151 255 105 180
21.098 18.25 1.152 255 105 180
21.115 18.381 1.156 255 105 180
21.129 18.51 1.159 255 105 180
21.147 18.644 1.162 255 105 180
21.148 18.764 1.165 255 105 180
21.195 18.865 1.169 255 105 180
21.208 18.997 1.172 255 105 180
21.227 19.134 1.175 255 105 180
21.154 19.189 1.175 255 105 180
21.046 19.212 1.173 255 105 180
16.744 15.374 0.978 255 105 180
16.667 15.401 0.976 255 105 180
16.608 15.394 0.975 255 105 180
16.561 15.448 0.975 255 105 180
20.518 19.268 1.161 255 105 180
20.413 19.291 1.159 255 105 180
20.302 19.307 1.156 255 105 180
20.195 19.326 1.154 255 105 180
20.093 19.349 1.152 255 105 180
20.015 19.335 1.15 255 105 180
19.911 19.356 1.148 255 105 180
19.807 19.376 1.146 255 105 180
19.699 19.392 1.144 255 105 180
19.6 19.416 1.142 255 105 180
19.496 19.435 1.14 255 105 180
19.396 19.456 1.138 255 105 180
19.312 19.433 1.136 255 105 180
19.213 19.455 1.134 255 105 180
19.105 19.468 1.131 255 105 180
19.008 19.491 1.13 255 105 180
18.902 19.505 1.128 255 105 180
18.802 19.523 1.126 255 105 180
18.702 19.542 1.124 255 105 180
18.638 19.537 1.122 255 105 180
18.534 19.55 1.12 255 105 180
18.445 19.579 1.119 255 105 180
18.336 19.586 1.116 255 105 180
18.24 19.607 1.115 255 105 180
18.143 19.626 1.113 255 105 180
18.042 19.64 1.111 255 105 180
17.949 19.662 1.109 255 105 180
17.871 19.639 1.107 255 105 180
17.786 19.668 1.106 255 105 180
17.681 19.676 1.104 255 105 180
17.594 19.703 1.102 255 105 180
17.493 19.715 1.1 255 105 180
17.324 19.648 1.095 255 105 180
17.302 19.748 1.097 255 105 180
17.233 19.731 1.095 255 105 180
17.145 19.755 1.094 255 105 180
17.053 19.774 1.092 255 105 180
16.958 19.79 1.09 255 105 180
16.866 19.808 1.089 255 105 180
16.771 19.822 1.087 255 105 180
16.678 19.838 1.086 255 105 180
16.611 19.822 1.084 255 105 180
16.526 19.846 1.082 255 105 180
16.433 19.861 1.081 255 105 180
16.342 19.878 1.079 255 105 180
16.256 19.9 1.078 255 105 180
16.159 19.909 1.076 255 105 180
16.072 19.929 1.075 255 105 180
15.983 19.946 1.073 255 105 180
15.92 19.932 1.072 255 105 180
15.831 19.949 1.07 255 105 180
15.735 19.957 1.068 255 105 180
15.65 19.978 1.067 255 105 180
15.559 19.99 1.066 255 105 180
15.474 20.011 1.064 255 105 180
15.385 20.024 1.063 255 105 180
15.334 20.023 1.062 255 105 180
15.241 20.031 1.06 255 105 180
15.16 20.055 1.059 255 105 180
15.069 20.066 1.058 255 105 180
14.984 20.084 1.056 255 105 180
14.897 20.099 1.055 255 105 180
14.814 20.118 1.054 255 105 180
14.765 20.117 1.053 255 105 180
14.666 20.115 1.051 255 105 180
14.587 20.138 1.05 255 105 180
14.508 20.163 1.049 255 105 180
14.416 20.168 1.047 255 105 180
14.329 20.18 1.046 255 105 180
14.243 20.193 1.045 255 105 180
14.19 20.186 1.043 255 105 180
14.111 20.207 1.043 255 105 180
14.028 20.223 1.041 255 105 180
13.944 20.238 1.04 255 105 180
13.861 20.253 1.039 255 105 180
13.773 20.26 1.038 255 105 180
13.692 20.279 1.037 255 105 180
13.642 20.274 1.035 255 105 180
13.558 20.285 1.034 255 105 180
13.478 20.304 1.033 255 105 180
13.399 20.323 1.032 255 105 180
13.312 20.33 1.031 255 105 180
13.229 20.341 1.03 255 105 180
13.042 20.193 1.022 255 105 180
12.916 20.136 1.018 255 105 180
12.864 20.124 1.017 255 105 180
12.785 20.139 1.016 255 105 180
12.702 20.147 1.014 255 105 180
12.664 20.228 1.016 255 105 180
12.796 20.949 1.039 255 105 180
12.828 21.15 1.046 255 105 180
12.842 21.326 1.051 255 105 180
12.87 21.524 1.057 255 105 180
12.887 21.709 1.063 255 105 180
12.914 21.911 1.069 255 105 180
12.936 22.107 1.075 255 105 180
12.957 22.303 1.081 255 105 180
13.018 22.49 1.088 255 105 180
13.044 22.7 1.094 255 105 180
13.076 22.922 1.101 255 105 180
13.102 23.137 1.108 255 105 180
13.128 23.354 1.115 255 105 180
13.152 23.57 1.122 255 105 180
11.283 20.364 0.996 255 105 180
11.229 20.341 0.995 255 105 180
11.139 20.329 0.993 255 105 180
11.041 20.301 0.991 255 105 180
11.018 20.411 0.993 255 105 180
10.932 20.405 0.992 255 105 180
10.866 20.436 0.992 255 105 180
10.783 20.434 0.99 255 105 180
10.745 20.439 0.99 255 105 180
10.663 20.439 0.989 255 105 180
10.597 20.469 0.989 255 105 180
10.521 20.479 0.988 255 105 180
10.448 20.496 0.987 255 105 180
10.37 20.502 0.986 255 105 180
10.299 20.522 0.986 255 105 180
10.221 20.525 0.984 255 105 180
10.183 20.531 0.984 255 105 180
10.101 20.527 0.983 255 105 180
10.033 20.551 0.982 255 105 180
9.956 20.557 0.981 255 105 180
9.888 20.581 0.981 255 105 180
9.81 20.583 0.98 255 105 180
9.741 20.605 0.98 255 105 180
9.693 20.588 0.979 255 105 180
9.628 20.618 0.979 255 105 180
9.553 20.625 0.978 255 105 180
9.479 20.634 0.977 255 105 180
9.403 20.64 0.976 255 105 180
9.334 20.661 0.976 255 105 180
9.257 20.663 0.975 255 105 180
9.188 20.683 0.974 255 105 180
9.147 20.679 0.974 255 105 180
9.078 20.698 0.973 255 105 180
9.002 20.701 0.972 255 105 180
8.935 20.725 0.972 255 105 180
8.854 20.715 0.971 255 105 180
8.786 20.737 0.971 255 105 180
8.71 20.739 0.97 255 105 180
8.677 20.75 0.97 255 105 180
8.602 20.754 0.969 255 105 180
8.535 20.777 0.969 255 105 180
8.458 20.774 0.968 255 105 180
8.393 20.802 0.968 255 105 180
8.32 20.808 0.967 255 105 180
8.247 20.815 0.966 255 105 180
8.21 20.817 0.966 255 105 180
8.136 20.822 0.965 255 105 180
8.069 20.844 0.965 255 105 180
7.993 20.841 0.964 255 105 180
7.927 20.865 0.964 255 105 180
7.856 20.874 0.963 255 105 180
7.784 20.882 0.963 255 105 180
7.718 20.906 0.963 255 105 180
7.679 20.9 0.962 255 105 180
7.609 20.912 0.962 255 105 180
7.534 20.912 0.961 255 105 180
7.47 20.939 0.961 255 105 180
7.397 20.942 0.96 255 105 180
7.324 20.946 0.959 255 105 180
7.258 20.967 0.959 255 105 180
7.22 20.965 0.959 255 105 180
7.153 20.984 0.959 255 105 180
7.081 20.989 0.958 255 105 180
7.017 21.015 0.958 255 105 180
6.942 21.011 0.957 255 105 180
6.873 21.025 0.957 255 105 180
6.796 21.012 0.956 255 105 180
6.32 19.639 0.907 255 105 180
6.246 19.62 0.905 255 105 180
6.181 19.628 0.905 255 105 180
6.123 19.659 0.905 255 105 180
6.081 19.743 0.908 255 105 180
6.418 21.08 0.954 255 105 180
6.355 21.11 0.955 255 105 180
6.281 21.105 0.954 255 105 180
6.249 21.117 0.954 255 105 180
6.176 21.113 0.953 255 105 180
6.114 21.148 0.954 255 105 180
6.039 21.138 0.952 255 105 180
5.971 21.153 0.952 255 105 180
5.902 21.16 0.952 255 105 180
5.836 21.182 0.952 255 105 180
5.797 21.17 0.951 255 105 180
5.731 21.189 0.951 255 105 180
5.658 21.183 0.951 255 105 180
5.595 21.214 0.951 255 105 180
5.525 21.218 0.951 255 105 180
5.456 21.226 0.95 255 105 180
5.388 21.241 0.95 255 105 180
5.353 21.24 0.95 255 105 180
5.283 21.247 0.949 255 105 180
5.218 21.267 0.95 255 105 180
5.146 21.264 0.949 255 105 180
5.082 21.29 0.949 255 105 180
5.01 21.286 0.949 255 105 180
4.944 21.304 0.949 255 105 180
4.874 21.308 0.948 255 105 180
4.842 21.323 0.949 255 105 180
4.772 21.324 0.948 255 105 180
4.705 21.339 0.948 255 105 180
4.637 21.35 0.948 255 105 180
4.569 21.361 0.948 255 105 180
4.499 21.359 0.947 255 105 180
4.2 20.248 0.908 255 105 180
4.168 20.254 0.908 255 105 180
4.102 20.257 0.908 255 105 180
4.14 20.78 0.926 255 105 180
4.181 21.34 0.944 255 105 180
4.125 21.41 0.946 255 105 180
4.059 21.433 0.947 255 105 180
3.99 21.434 0.946 255 105 180
3.924 21.452 0.947 255 105 180
3.888 21.448 0.946 255 105 180
3.822 21.47 0.947 255 105 180
3.753 21.47 0.946 255 105 180
3.687 21.49 0.946 255 105 180
3.617 21.488 0.946 255 105 180
3.55 21.503 0.946 255 105 180
3.242 20.018 0.895 255 105 180
3.211 20.027 0.895 255 105 180
3.129 19.911 0.891 255 105 180
3.084 20.039 0.895 255 105 180
3.021 20.046 0.895 255 105 180
2.959 20.064 0.895 255 105 180
2.895 20.067 0.895 255 105 180
2.835 20.094 0.895 255 105 180
2.801 20.082 0.895 255 105 180
2.739 20.101 0.895 255 105 180
2.675 20.1 0.895 255 105 180
2.612 20.114 0.895 255 105 180
2.558 20.195 0.897 255 105 180
2.498 20.231 0.898 255 105 180
2.997 24.967 1.059 255 105 180
2.919 24.976 1.059 255 105 180
2.882 24.998 1.06 255 105 180
2.791 24.898 1.056 255 105 180
2.75 25.251 1.068 255 105 180
2.148 20.271 0.898 255 105 180
2.084 20.274 0.898 255 105 180
2.017 20.248 0.897 255 105 180
1.95 20.213 0.896 255 105 180
1.917 20.2 0.895 255 105 180
1.853 20.208 0.895 255 105 180
1.789 20.202 0.895 255 105 180
1.727 20.229 0.896 255 105 180
1.664 20.242 0.896 255 105 180
1.6 20.236 0.896 255 105 180
1.536 20.241 0.896 255 105 180
1.507 20.279 0.897 255 105 180
1.443 20.281 0.897 255 105 180
1.38 20.296 0.897 255 105 180
1.315 20.288 0.897 255 105 180
0.839 20.357 0.898 255 105 180
0.776 20.386 0.899 255 105 180
0.711 20.376 0.899 255 105 180
0.647 20.374 0.898 255 105 180
0.616 20.409 0.9 255 105 180
0.552 20.405 0.899 255 105 180
0.488 20.429 0.9 255 105 180
0.424 20.422 0.9 255 105 180
0.359 20.376 0.898 255 105 180
0.294 20.321 0.896 255 105 180
0.232 20.451 0.901 255 105 180
0.167 20.396 0.899 255 105 180
0.135 20.362 0.898 255 105 180
0.071 20.219 0.893 255 105 180
0.007 20.237 0.893 255 105 180
-0.056 20.225 0.893 255 105 180
-0.12 20.222 0.893 255 105 180
-0.183 20.21 0.893 255 105 180
-0.247 20.211 0.893 255 105 180
-0.279 20.237 0.893 255 105 180
-0.343 20.246 0.894 255 105 180
-0.407 20.271 0.895 255 105 180
-0.475 20.441 0.901 255 105 180
-0.54 20.458 0.901 255 105 180
-0.598 20.26 0.895 255 105 180
-0.669 20.468 0.902 255 105 180
-0.697 20.361 0.898 255 105 180
-0.767 20.504 0.903 255 105 180
-0.826 20.372 0.899 255 105 180
-0.892 20.415 0.9 255 105 180
-0.958 20.46 0.902 255 105 180
-1.018 20.365 0.899 255 105 180
-1.082 20.374 0.899 255 105 180
-1.146 20.37 0.899 255 105 180
-1.179 20.385 0.9 255 105 180
-1.248 20.455 0.902 255 105 180
-1.314 20.479 0.903 255 105 180
-1.375 20.424 0.901 255 105 180
-1.439 20.424 0.901 255 105 180
-1.517 20.595 0.907 255 105 180
-1.589 20.696 0.911 255 105 180
-1.604 20.47 0.903 255 105 180
-1.672 20.507 0.905 255 105 180
-1.73 20.428 0.902 255 105 180
-1.802 20.506 0.905 255 105 180
-1.866 20.494 0.905 255 105 180
-1.938 20.567 0.908 255 105 180
-2.008 20.621 0.91 255 105 180
-2.029 20.508 0.906 255 105 180
-2.099 20.55 0.908 255 105 180
-2.191 20.801 0.916 255 105 180
-2.237 20.616 0.91 255 105 180
-2.3 20.596 0.91 255 105 180
-2.373 20.657 0.912 255 105 180
-2.431 20.594 0.91 255 105 180
-2.52 20.79 0.917 255 105 180
-2.532 20.62 0.912 255 105 180
-2.59 20.558 0.91 255 105 180
-2.654 20.542 0.91 255 105 180
-2.717 20.521 0.909 255 105 180
-2.811 20.727 0.916 255 105 180
-2.872 20.692 0.916 255 105 180
-2.964 20.871 0.922 255 105 180
-2.991 20.6 0.913 255 105 180
-3.062 20.857 0.922 255 105 180
-3.144 20.952 0.926 255 105 180
-3.184 20.78 0.92 255 105 180
-3.266 20.87 0.923 255 105 180
-3.345 20.943 0.926 255 105 180
-3.409 20.926 0.926 255 105 180
-3.468 20.876 0.925 255 105 180
-3.499 20.855 0.924 255 105 180
-3.546 20.741 0.921 255 105 180
-3.627 20.817 0.924 255 105 180
-3.727 21 0.93 255 105 180
-3.795 20.998 0.931 255 105 180
-3.868 21.027 0.932 255 105 180
-3.91 20.883 0.928 255 105 180
-3.952 20.926 0.929 255 105 180
-4.009 20.869 0.928 255 105 180
-4.093 20.952 0.931 255 105 180
-4.149 20.89 0.929 255 105 180
-4.264 21.122 0.938 255 105 180
-4.291 20.917 0.931 255 105 180
-4.375 20.991 0.934 255 105 180
-4.453 21.034 0.936 255 105 180
-4.475 20.974 0.934 255 105 180
-4.58 21.14 0.941 255 105 180
-4.659 21.184 0.943 255 105 180
-4.731 21.192 0.943 255 105 180
-4.803 21.199 0.944 255 105 180
-4.874 21.205 0.945 255 105 180
-4.949 21.223 0.946 255 105 180
-4.989 21.246 0.947 255 105 180
-5.029 21.117 0.943 255 105 180
-5.133 21.255 0.949 255 105 180
-5.204 21.258 0.949 255 105 180
-5.321 21.443 0.956 255 105 180
-5.318 21.149 0.947 255 105 180
-18.391 71.924 2.719 255 105 180
-18.359 71.332 2.7 255 105 180
-18.377 70.484 2.672 255 105 180
-18.702 70.817 2.686 255 105 180
-18.968 70.922 2.692 255 105 180
-19.25 71.08 2.699 255 105 180
-19.699 71.84 2.728 255 105 180
-20.296 73.114 2.775 255 105 180
-20.211 71.932 2.736 255 105 180
-20.262 71.681 2.728 255 105 180
-20.771 72.611 2.763 255 105 180
-20.973 72.453 2.76 255 105 180
-21.23 72.49 2.763 255 105 180
-4.834 15.75 0.766 255 105 180
-4.882 15.729 0.766 255 105 180
-4.94 15.742 0.767 255 105 180
-4.948 15.597 0.762 255 105 180
-4.986 15.545 0.761 255 105 180
-5.106 15.75 0.769 255 105 180
-22.95 63.636 2.497 255 105 180
-23.046 63.28 2.486 255 105 180
-23.126 62.884 2.475 255 105 180
-23.207 62.499 2.463 255 105 180
-23.279 62.094 2.452 255 105 180
-14.483 38.294 1.594 255 105 180
-14.493 38.138 1.589 255 105 180
-14.597 38.053 1.587 255 105 180
-14.91 38.505 1.605 255 105 180
-15.045 38.495 1.607 255 105 180
-23.588 59.759 2.382 255 105 180
-15.074 37.867 1.587 255 105 180
-15.172 37.767 1.585 255 105 180
-15.644 38.763 1.623 255 105 180
-15.246 37.44 1.576 255 105 180
-15.393 37.462 1.579 255 105 180
-15.573 37.565 1.584 255 105 180
-15.801 37.78 1.594 255 105 180
-16.005 37.93 1.601 255 105 180
-15.992 37.571 1.59 255 105 180
-16.128 37.561 1.591 255 105 180
42.972 15.981 1.468 255 105 180
42.695 16.031 1.462 255 105 180
42.424 16.082 1.455 255 105 180
42.154 16.131 1.449 255 105 180
41.872 16.175 1.442 255 105 180
41.642 16.161 1.436 255 105 180
41.376 16.208 1.43 255 105 180
41.091 16.245 1.423 255 105 180
40.843 16.296 1.417 255 105 180
35.019 14.232 1.247 255 105 180
34.82 14.279 1.243 255 105 180
34.617 14.259 1.237 255 105 180
34.42 14.305 1.233 255 105 180
34.191 14.336 1.227 255 105 180
33.965 14.367 1.222 255 105 180
33.756 14.404 1.217 255 105 180
33.516 14.426 1.211 255 105 180
33.327 14.469 1.207 255 105 180
33.135 14.51 1.203 255 105 180
32.92 14.478 1.197 255 105 180
32.743 14.523 1.193 255 105 180
32.52 14.546 1.188 255 105 180
32.257 14.551 1.181 255 105 180
32.251 14.67 1.182 255 105 180
32.267 14.8 1.184 255 105 180
32.285 14.931 1.186 255 105 180
32.325 15.011 1.188 255 105 180
32.342 15.143 1.19 255 105 180
32.363 15.276 1.192 255 105 180
32.381 15.41 1.194 255 105 180
32.401 15.544 1.196 255 105 180
32.415 15.676 1.198 255 105 180
32.297 15.745 1.196 255 105 180
35.375 17.311 1.291 255 105 180
35.374 17.449 1.292 255 105 180
35.387 17.594 1.295 255 105 180
35.407 17.742 1.297 255 105 180
32.607 16.47 1.212 255 105 180
32.561 16.575 1.213 255 105 180
32.564 16.705 1.214 255 105 180
32.61 16.794 1.217 255 105 180
32.621 16.93 1.219 255 105 180
32.646 17.073 1.221 255 105 180
32.663 17.212 1.223 255 105 180
27.769 14.749 1.073 255 105 180
32.665 17.477 1.227 255 105 180
32.501 17.52 1.223 255 105 180
32.348 17.504 1.219 255 105 180
32.162 17.534 1.215 255 105 180
31.982 17.567 1.211 255 105 180
31.788 17.591 1.207 255 105 180
31.623 17.629 1.203 255 105 180
31.443 17.659 1.2 255 105 180
31.271 17.692 1.196 255 105 180
31.09 17.719 1.192 255 105 180
30.948 17.702 1.188 255 105 180
30.781 17.735 1.185 255 105 180
30.613 17.767 1.181 255 105 180
30.446 17.798 1.178 255 105 180
30.275 17.826 1.174 255 105 180
30.107 17.855 1.17 255 105 180
29.937 17.882 1.167 255 105 180
29.811 17.87 1.164 255 105 180
29.64 17.895 1.16 255 105 180
29.482 17.926 1.157 255 105 180
29.318 17.952 1.153 255 105 180
29.166 17.986 1.15 255 105 180
29.007 18.014 1.147 255 105 180
28.845 18.039 1.143 255 105 180
28.722 18.025 1.14 255 105 180
28.579 18.061 1.138 255 105 180
28.345 18.038 1.132 255 105 180
28.256 18.107 1.131 255 105 180
28.113 18.14 1.128 255 105 180
27.961 18.166 1.125 255 105 180
27.808 18.192 1.122 255 105 180
27.667 18.224 1.119 255 105 180
27.769 18.353 1.123 255 105 180
23.566 15.687 0.987 255 105 180
23.542 15.778 0.987 255 105 180
23.45 15.824 0.986 255 105 180
23.285 15.819 0.982 255 105 180
23.012 15.74 0.975 255 105 180
23.056 15.876 0.978 255 105 180
22.934 15.846 0.975 255 105 180
22.824 15.875 0.973 255 105 180
22.651 15.861 0.968 255 105 180
22.47 15.84 0.964 255 105 180
22.497 15.965 0.967 255 105 180
22.378 15.987 0.964 255 105 180
22.299 15.984 0.963 255 105 180
22.007 15.879 0.954 255 105 180
21.951 15.944 0.954 255 105 180
21.93 16.034 0.955 255 105 180
21.823 16.061 0.953 255 105 180
21.729 16.098 0.952 255 105 180
21.422 15.975 0.943 255 105 180
20.885 16.836 0.946 255 105 180
20.898 16.955 0.948 255 105 180
20.917 17.079 0.951 255 105 180
20.93 17.2 0.953 255 105 180
20.972 17.29 0.955 255 105 180
20.989 17.414 0.958 255 105 180
20.994 17.53 0.96 255 105 180
24.037 20.195 1.071 255 105 180
24.061 20.344 1.074 255 105 180
21.311 18.137 0.978 255 105 180
21.158 18.122 0.974 255 105 180
21.119 18.146 0.974 255 105 180
21.121 18.264 0.976 255 105 180
21.131 18.389 0.978 255 105 180
21.151 18.524 0.981 255 105 180
21.156 18.645 0.983 255 105 180
21.171 18.777 0.986 255 105 180
21.195 18.918 0.989 255 105 180
21.204 18.985 0.991 255 105 180
21.156 19.063 0.991 255 105 180
21.036 19.074 0.989 255 105 180
20.44 19.189 0.979 255 105 180
20.271 19.15 0.975 255 105 180
20.24 19.241 0.976 255 105 180
20.156 19.282 0.975 255 105 180
20.056 19.308 0.974 255 105 180
19.951 19.328 0.972 255 105 180
19.873 19.313 0.97 255 105 180
19.767 19.331 0.968 255 105 180
19.667 19.355 0.967 255 105 180
19.562 19.373 0.965 255 105 180
19.455 19.388 0.963 255 105 180
19.353 19.408 0.962 255 105 180
19.249 19.426 0.96 255 105 180
19.148 19.445 0.959 255 105 180
19.078 19.436 0.957 255 105 180
18.973 19.451 0.955 255 105 180
18.87 19.468 0.954 255 105 180
18.769 19.485 0.952 255 105 180
18.669 19.503 0.95 255 105 180
18.57 19.523 0.949 255 105 180
18.472 19.542 0.948 255 105 180
18.397 19.524 0.946 255 105 180
18.304 19.549 0.944 255 105 180
18.207 19.568 0.943 255 105 180
18.105 19.581 0.941 255 105 180
18.016 19.608 0.94 255 105 180
17.91 19.616 0.939 255 105 180
17.813 19.634 0.937 255 105 180
17.745 19.62 0.936 255 105 180
17.666 19.657 0.935 255 105 180
17.561 19.665 0.933 255 105 180
17.425 19.636 0.93 255 105 180
17.351 19.677 0.929 255 105 180
17.281 19.723 0.929 255 105 180
17.177 19.729 0.927 255 105 180
17.081 19.743 0.926 255 105 180
17.016 19.731 0.925 255 105 180
16.923 19.748 0.923 255 105 180
16.826 19.76 0.922 255 105 180
16.741 19.786 0.921 255 105 180
16.644 19.798 0.919 255 105 180
16.554 19.816 0.918 255 105 180
16.462 19.833 0.917 255 105 180
16.403 19.825 0.916 255 105 180
16.311 19.841 0.914 255 105 180
16.222 19.859 0.913 255 105 180
16.132 19.876 0.912 255 105 180
16.036 19.885 0.911 255 105 180
15.949 19.905 0.909 255 105 180
15.859 19.921 0.908 255 105 180
15.802 19.913 0.907 255 105 180
15.714 19.931 0.906 255 105 180
15.625 19.946 0.905 255 105 180
15.538 19.965 0.904 255 105 180
15.445 19.974 0.902 255 105 180
15.359 19.992 0.901 255 105 180
15.271 20.007 0.9 255 105 180
15.22 20.006 0.899 255 105 180
15.128 20.015 0.898 255 105 180
15.045 20.035 0.897 255 105 180
14.954 20.046 0.896 255 105 180
14.872 20.067 0.895 255 105 180
14.786 20.083 0.894 255 105 180
14.696 20.092 0.893 255 105 180
14.643 20.086 0.892 255 105 180
14.554 20.096 0.89 255 105 180
14.47 20.113 0.889 255 105 180
14.389 20.134 0.889 255 105 180
14.3 20.143 0.887 255 105 180
14.217 20.16 0.886 255 105 180
14.137 20.18 0.886 255 105 180
14.051 20.193 0.885 255 105 180
13.996 20.181 0.883 255 105 180
13.92 20.207 0.883 255 105 180
13.831 20.214 0.882 255 105 180
13.753 20.236 0.881 255 105 180
13.666 20.244 0.88 255 105 180
13.591 20.271 0.879 255 105 180
13.5 20.272 0.878 255 105 180
13.453 20.271 0.877 255 105 180
13.369 20.282 0.876 255 105 180
13.286 20.295 0.875 255 105 180
13.189 20.285 0.873 255 105 180
12.965 20.079 0.865 255 105 180
12.885 20.093 0.865 255 105 180
12.804 20.107 0.864 255 105 180
12.72 20.113 0.863 255 105 180
12.689 20.135 0.863 255 105 180
12.786 20.863 0.881 255 105 180
12.797 21.029 0.885 255 105 180
12.818 21.213 0.89 255 105 180
12.879 21.389 0.895 255 105 180
12.9 21.577 0.899 255 105 180
12.926 21.775 0.904 255 105 180
12.95 21.973 0.909 255 105 180
12.972 22.168 0.914 255 105 180
12.996 22.37 0.919 255 105 180
13.025 22.582 0.925 255 105 180
13.088 22.774 0.93 255 105 180
13.115 22.988 0.936 255 105 180
13.139 23.198 0.941 255 105 180
13.167 23.418 0.947 255 105 180
13.193 23.638 0.952 255 105 180
11.265 20.341 0.848 255 105 180
11.182 20.341 0.846 255 105 180
11.025 20.206 0.841 255 105 180
11.068 20.362 0.845 255 105 180
10.984 20.358 0.844 255 105 180
10.912 20.378 0.844 255 105 180
10.836 20.389 0.843 255 105 180
10.765 20.411 0.843 255 105 180
10.683 20.411 0.842 255 105 180
10.614 20.436 0.841 255 105 180
10.568 20.424 0.841 255 105 180
10.501 20.452 0.84 255 105 180
10.42 20.452 0.839 255 105 180
10.349 20.473 0.839 255 105 180
10.269 20.473 0.838 255 105 180
10.202 20.5 0.838 255 105 180
10.123 20.503 0.837 255 105 180
10.052 20.52 0.836 255 105 180
10.007 20.511 0.836 255 105 180
9.94 20.537 0.836 255 105 180
9.858 20.532 0.834 255 105 180
9.792 20.559 0.834 255 105 180
9.718 20.57 0.834 255 105 180
9.645 20.584 0.833 255 105 180
9.567 20.585 0.832 255 105 180
9.533 20.597 0.832 255 105 180
9.453 20.594 0.831 255 105 180
9.387 20.62 0.831 255 105 180
9.31 20.624 0.83 255 105 180
9.244 20.649 0.83 255 105 180
9.17 20.658 0.83 255 105 180
9.096 20.667 0.829 255 105 180
9.053 20.655 0.828 255 105 180
8.984 20.676 0.828 255 105 180
8.912 20.686 0.828 255 105 180
8.837 20.692 0.827 255 105 180
8.768 20.71 0.827 255 105 180
8.696 20.721 0.826 255 105 180
8.628 20.741 0.826 255 105 180
8.552 20.742 0.825 255 105 180
8.516 20.748 0.825 255 105 180
8.437 20.742 0.824 255 105 180
8.374 20.774 0.824 255 105 180
8.298 20.772 0.823 255 105 180
8.231 20.794 0.823 255 105 180
8.156 20.796 0.822 255 105 180
8.092 20.823 0.822 255 105 180
8.05 20.813 0.822 255 105 180
7.982 20.831 0.822 255 105 180
7.912 20.845 0.821 255 105 180
7.841 20.855 0.821 255 105 180
7.766 20.853 0.82 255 105 180
7.701 20.879 0.82 255 105 180
7.629 20.886 0.82 255 105 180
7.591 20.883 0.819 255 105 180
7.521 20.896 0.819 255 105 180
7.453 20.914 0.819 255 105 180
7.382 20.92 0.818 255 105 180
7.311 20.93 0.818 255 105 180
7.239 20.936 0.817 255 105 180
7.172 20.953 0.817 255 105 180
7.102 20.964 0.817 255 105 180
7.065 20.964 0.816 255 105 180
6.995 20.972 0.816 255 105 180
6.927 20.989 0.816 255 105 180
6.868 21.031 0.817 255 105 180
6.781 20.988 0.815 255 105 180
6.263 19.6 0.774 255 105 180
6.195 19.599 0.773 255 105 180
6.166 19.614 0.774 255 105 180
6.114 19.666 0.775 255 105 180
6.47 21.038 0.813 255 105 180
6.408 21.073 0.814 255 105 180
6.336 21.074 0.813 255 105 180
6.265 21.077 0.813 255 105 180
6.201 21.104 0.813 255 105 180
6.161 21.089 0.812 255 105 180
6.095 21.112 0.812 255 105 180
6.023 21.11 0.812 255 105 180
5.956 21.127 0.812 255 105 180
5.887 21.134 0.811 255 105 180
5.822 21.16 0.812 255 105 180
5.751 21.161 0.811 255 105 180
5.682 21.171 0.811 255 105 180
5.646 21.166 0.811 255 105 180
5.581 21.19 0.811 255 105 180
5.509 21.188 0.81 255 105 180
5.445 21.217 0.811 255 105 180
5.373 21.212 0.81 255 105 180
5.307 21.231 0.81 255 105 180
5.234 21.224 0.809 255 105 180
5.203 21.24 0.81 255 105 180
5.132 21.237 0.809 255 105 180
5.066 21.259 0.809 255 105 180
4.998 21.269 0.809 255 105 180
4.931 21.282 0.809 255 105 180
4.861 21.286 0.809 255 105 180
4.794 21.301 0.809 255 105 180
4.725 21.305 0.808 255 105 180
4.693 21.322 0.809 255 105 180
4.373 20.176 0.776 255 105 180
4.307 20.176 0.776 255 105 180
4.334 20.618 0.788 255 105 180
4.318 20.862 0.794 255 105 180
4.345 21.332 0.807 255 105 180
4.284 21.371 0.808 255 105 180
4.249 21.372 0.807 255 105 180
4.181 21.383 0.807 255 105 180
4.115 21.4 0.807 255 105 180
4.047 21.409 0.807 255 105 180
3.979 21.42 0.807 255 105 180
3.912 21.434 0.807 255 105 180
3.844 21.44 0.807 255 105 180
3.81 21.444 0.807 255 105 180
3.742 21.452 0.807 255 105 180
3.674 21.464 0.807 255 105 180
3.606 21.468 0.807 255 105 180
3.293 20 0.766 255 105 180
3.226 19.984 0.765 255 105 180
3.161 19.982 0.765 255 105 180
3.071 20.025 0.765 255 105 180
3.009 20.042 0.766 255 105 180
2.945 20.044 0.765 255 105 180
2.882 20.055 0.765 255 105 180
2.819 20.058 0.765 255 105 180
2.757 20.074 0.765 255 105 180
2.692 20.069 0.765 255 105 180
2.663 20.095 0.766 255 105 180
2.608 20.165 0.767 255 105 180
2.54 20.135 0.766 255 105 180
3.106 25.206 0.906 255 105 180
3.025 25.206 0.906 255 105 180
2.947 25.223 0.906 255 105 180
2.304 20.317 0.77 255 105 180
2.812 25.094 0.902 255 105 180
2.134 20.243 0.768 255 105 180
2.069 20.233 0.767 255 105 180
2.002 20.2 0.766 255 105 180
1.937 20.19 0.766 255 105 180
1.872 20.188 0.766 255 105 180
1.81 20.2 0.766 255 105 180
1.777 20.189 0.766 255 105 180
1.715 20.22 0.766 255 105 180
1.652 20.233 0.766 255 105 180
1.59 20.246 0.767 255 105 180
1.526 20.247 0.767 255 105 180
1.461 20.24 0.766 255 105 180
1.399 20.263 0.767 255 105 180
1.368 20.279 0.767 255 105 180
1.304 20.281 0.767 255 105 180
1.24 20.277 0.767 255 105 180
1.176 20.279 0.767 255 105 180
0.921 20.282 0.767 255 105 180
0.892 20.347 0.768 255 105 180
0.828 20.36 0.769 255 105 180
0.764 20.36 0.768 255 105 180
0.7 20.357 0.768 255 105 180
0.636 20.371 0.769 255 105 180
0.573 20.397 0.769 255 105 180
0.509 20.404 0.769 255 105 180
0.477 20.405 0.769 255 105 180
0.414 20.431 0.77 255 105 180
0.349 20.428 0.77 255 105 180
0.285 20.409 0.769 255 105 180
0.221 20.42 0.77 255 105 180
0.156 20.312 0.767 255 105 180
0.092 20.347 0.768 255 105 180
0.061 20.463 0.771 255 105 180
-0.004 20.385 0.769 255 105 180
-0.067 20.205 0.764 255 105 180
-0.131 20.206 0.764 255 105 180
-0.196 20.36 0.768 255 105 180
-0.259 20.305 0.767 255 105 180
-0.321 20.2 0.764 255 105 180
-0.385 20.213 0.764 255 105 180
-0.418 20.286 0.766 255 105 180
-0.484 20.385 0.769 255 105 180
-0.546 20.279 0.766 255 105 180
-0.611 20.332 0.768 255 105 180
-0.674 20.296 0.767 255 105 180
-0.738 20.299 0.767 255 105 180
-0.805 20.383 0.769 255 105 180
-0.835 20.328 0.768 255 105 180
-0.904 20.451 0.771 255 105 180
-0.97 20.49 0.772 255 105 180
-1.041 20.628 0.776 255 105 180
-1.106 20.631 0.776 255 105 180
-1.172 20.649 0.777 255 105 180
-1.235 20.606 0.776 255 105 180
-1.257 20.43 0.771 255 105 180
-1.318 20.378 0.77 255 105 180
-1.383 20.388 0.77 255 105 180
-1.456 20.509 0.774 255 105 180
-1.515 20.433 0.772 255 105 180
-1.581 20.45 0.772 255 105 180
-1.646 20.457 0.773 255 105 180
-1.705 20.388 0.771 255 105 180
-1.737 20.383 0.771 255 105 180
-1.803 20.401 0.771 255 105 180
-1.889 20.64 0.778 255 105 180
-1.936 20.437 0.773 255 105 180
-1.999 20.423 0.772 255 105 180
-2.071 20.498 0.775 255 105 180
-2.153 20.659 0.779 255 105 180
-2.212 20.602 0.778 255 105 180
-2.233 20.487 0.775 255 105 180
-2.299 20.498 0.775 255 105 180
-2.371 20.556 0.777 255 105 180
-2.459 20.749 0.783 255 105 180
-2.499 20.535 0.777 255 105 180
-2.56 20.495 0.776 255 105 180
-2.635 20.575 0.779 255 105 180
-2.675 20.628 0.78 255 105 180
-2.771 20.857 0.787 255 105 180
-2.839 20.866 0.787 255 105 180
-2.875 20.641 0.781 255 105 180
-2.973 20.868 0.788 255 105 180
-3.033 20.821 0.787 255 105 180
-3.113 20.912 0.79 255 105 180
-3.14 20.866 0.788 255 105 180
-3.208 20.869 0.789 255 105 180
-3.26 20.772 0.786 255 105 180
-3.349 20.912 0.791 255 105 180
-3.408 20.864 0.79 255 105 180
-3.463 20.784 0.788 255 105 180
-3.546 20.883 0.791 255 105 180
-3.625 20.945 0.793 255 105 180
-3.645 20.867 0.791 255 105 180
-3.695 20.768 0.788 255 105 180
-3.767 20.794 0.789 255 105 180
-3.87 20.991 0.795 255 105 180
-3.94 20.998 0.796 255 105 180
-3.969 20.789 0.79 255 105 180
-4.091 21.073 0.798 255 105 180
-4.135 21.123 0.8 255 105 180
-4.203 21.118 0.8 255 105 180
-4.27 21.105 0.8 255 105 180
-4.276 20.799 0.792 255 105 180
-4.353 20.839 0.794 255 105 180
-4.432 20.889 0.795 255 105 180
-4.512 20.944 0.797 255 105 180
-4.578 21.091 0.802 255 105 180
-4.635 21.034 0.8 255 105 180
-4.743 21.208 0.806 255 105 180
-4.813 21.209 0.806 255 105 180
-4.887 21.227 0.807 255 105 180
-4.964 21.256 0.808 255 105 180
-5.005 21.128 0.805 255 105 180
-5.094 21.209 0.808 255 105 180
-5.145 21.273 0.81 255 105 180
-5.258 21.445 0.815 255 105 180
-5.264 21.184 0.808 255 105 180
-14.032 38.65 1.338 255 105 180
-14.123 38.524 1.336 255 105 180
-14.26 38.522 1.337 255 105 180
-14.382 38.479 1.337 255 105 180
-14.468 38.342 1.335 255 105 180
-14.513 38.098 1.329 255 105 180
-14.67 38.15 1.332 255 105 180
-14.646 37.908 1.325 255 105 180
-14.78 37.899 1.326 255 105 180
-15.059 38.26 1.338 255 105 180
-15.298 38.514 1.347 255 105 180
-15.377 38.362 1.344 255 105 180
-15.415 38.107 1.338 255 105 180
-15.326 37.548 1.323 255 105 180
-15.513 37.836 1.332 255 105 180
-15.591 37.688 1.329 255 105 180
-15.679 37.566 1.327 255 105 180
-15.861 37.34 1.323 255 105 180
-16.005 37.353 1.325 255 105 180
-25.64 59.363 1.985 255 105 180
-25.871 59.385 1.989 255 105 180
-26.018 59.467 1.992 255 105 180
-26.216 59.411 1.993 255 105 180
-26.284 59.061 1.985 255 105 180
-26.366 58.747 1.978 255 105 180
-26.416 58.367 1.969 255 105 180
-26.492 58.049 1.962 255 105 180
-26.569 57.736 1.955 255 105 180
-26.497 57.342 1.944 255 105 180
-26.562 57.011 1.937 255 105 180
-26.626 56.683 1.929 255 105 180
-26.683 56.342 1.922 255 105 180
-26.743 56.013 1.914 255 105 180
-26.799 55.68 1.907 255 105 180
-26.87 55.381 1.9 255 105 180
-26.919 55.261 1.898 255 105 180
-27.094 55.178 1.898 255 105 180
-27.255 55.07 1.897 255 105 180
-27.052 53.804 1.863 255 105 180
-27.108 53.496 1.857 255 105 180
-27.156 53.175 1.849 255 105 180
-27.132 52.924 1.843 255 105 180
-27.209 52.665 1.837 255 105 180
-27.414 52.655 1.84 255 105 180
-27.637 52.68 1.843 255 105 180
-27.873 52.726 1.847 255 105 180
-28.092 52.739 1.851 255 105 180
-28.325 52.777 1.854 255 105 180
-28.548 52.793 1.858 255 105 180
-28.701 52.877 1.862 255 105 180
-28.925 52.893 1.865 255 105 180
-29.16 52.928 1.869 255 105 180
-29.392 52.954 1.873 255 105 180
-16.316 29.155 1.127 255 105 180
-16.292 28.898 1.12 255 105 180
-16.399 28.876 1.121 255 105 180
-16.527 28.891 1.123 255 105 180
-16.664 29.024 1.128 255 105 180
-16.932 29.278 1.138 255 105 180
-16.615 28.521 1.116 255 105 180
-16.601 28.293 1.11 255 105 180
-16.707 28.268 1.111 255 105 180
-16.669 28.003 1.104 255 105 180
-16.828 28.07 1.108 255 105 180
-17.014 28.28 1.116 255 105 180
-17.088 28.201 1.115 255 105 180
-17.14 28.087 1.113 255 105 180
-17.344 28.223 1.119 255 105 180
-17.406 28.125 1.117 255 105 180
-17.228 27.643 1.104 255 105 180
-17.401 27.726 1.108 255 105 180
-26.583 42.234 1.58 255 105 180
-27.497 43.385 1.62 255 105 180
-27.702 43.406 1.624 255 105 180
-34.091 53.059 1.942 255 105 180
-34.768 53.742 1.967 255 105 180
-35.032 53.778 1.972 255 105 180
-28.5 43.443 1.636 255 105 180
-27.648 41.854 1.587 255 105 180
-27.65 41.716 1.584 255 105 180
-27.813 41.677 1.585 255 105 180
-36.275 54.002 1.996 255 105 180
-29.973 44.311 1.679 255 105 180
-30.068 44.152 1.676 255 105 180
-25.926 37.808 1.468 255 105 180
